285685.320000	7610920.890000	-0.421000
285685.320000	7610915.890000	-0.449000
285685.320000	7610910.890000	-0.616000
285685.320000	7610905.890000	-0.425000
285685.320000	7610900.890000	-0.464000
285685.320000	7610895.890000	-0.467780
285685.320000	7610890.890000	-0.532000
285685.320000	7610885.890000	-0.647500
285685.320000	7610880.890000	-0.498000
285685.320000	7610875.890000	-0.533000
285685.320000	7610870.890000	-0.569000
285685.320000	7610865.890000	-0.551000
285685.320000	7610860.890000	-0.551000
285685.320000	7610855.890000	-0.494000
285685.320000	7610850.890000	-0.501000
285685.320000	7610845.890000	-0.517000
285685.320000	7610840.890000	-0.665000
285685.320000	7610835.890000	-0.562000
285685.320000	7610830.890000	-0.550000
285685.320000	7610825.890000	-0.555000
285685.320000	7610820.890000	-0.671000
285685.320000	7610815.890000	-0.640000
285685.320000	7610810.890000	-0.576000
285685.320000	7610805.890000	-0.596000
285685.320000	7610800.890000	-0.593000
285685.320000	7610795.890000	-0.586000
285685.320000	7610790.890000	-0.717000
285685.320000	7610785.890000	-0.752000
285685.320000	7610780.890000	-0.748000
285685.320000	7610775.890000	-0.596000
285685.320000	7610770.890000	-0.616320
285685.320000	7610765.890000	-0.619000
285685.320000	7610760.890000	-0.572000
285685.320000	7610755.890000	-0.644080
285685.320000	7610750.890000	-0.705000
285685.320000	7610745.890000	-0.652000
285685.320000	7610740.890000	-0.730000
285685.320000	7610735.890000	-0.941150
285685.320000	7610730.890000	-0.791000
285685.320000	7610725.890000	-0.851000
285685.320000	7610720.890000	-0.830550
285685.320000	7610715.890000	-0.962290
285685.320000	7610710.890000	-0.921000
285685.320000	7610705.890000	-1.037000
285685.320000	7610700.890000	-0.798550
285685.320000	7610695.890000	-1.066000
285685.320000	7610690.890000	-0.840000
285685.320000	7610685.890000	-0.869000
285685.320000	7610680.890000	-0.838000
285685.320000	7610675.890000	-0.792000
285685.320000	7610670.890000	-0.938200
285685.320000	7610665.890000	-0.951060
285685.320000	7610660.890000	-1.047180
285685.320000	7610655.890000	-0.889000
285685.320000	7610650.890000	-1.019150
285685.320000	7610645.890000	-1.137000
285685.320000	7610640.890000	-1.175000
285685.320000	7610635.890000	-1.040000
285685.320000	7610630.890000	-0.796000
285685.320000	7610625.890000	-0.888520
285685.320000	7610620.890000	-1.122060
285685.320000	7610615.890000	-1.044580
285685.320000	7610610.890000	-0.948000
285685.320000	7610605.890000	-0.960000
285685.320000	7610600.890000	-1.081160
285685.320000	7610595.890000	-1.157000
285685.320000	7610590.890000	-0.994600
285685.320000	7610585.890000	-1.013490
285685.320000	7610580.890000	-0.774000
285685.320000	7610575.890000	-1.207700
285685.320000	7610570.890000	-1.064000
285685.320000	7610565.890000	-1.022000
285685.320000	7610560.890000	-1.196000
285685.320000	7610555.890000	-1.315030
285685.320000	7610550.890000	-1.175160
285685.320000	7610545.890000	-1.049270
285685.320000	7610540.890000	-1.141450
285685.320000	7610535.890000	-0.925270
285685.320000	7610530.890000	-1.138900
285685.320000	7610525.890000	-1.016000
285685.320000	7610520.890000	-0.867000
285685.320000	7610515.890000	-0.851000
285685.320000	7610510.890000	-0.889000
285685.320000	7610505.890000	-0.960000
285685.320000	7610500.890000	-0.870000
285685.320000	7610495.890000	-0.754870
285685.320000	7610490.890000	-0.951000
285685.320000	7610485.890000	-0.945000
285685.320000	7610480.890000	-0.998000
285685.320000	7610475.890000	-1.384530
285685.320000	7610470.890000	-1.593000
285685.320000	7610465.890000	-1.734000
285685.320000	7610460.890000	-1.760000
285685.320000	7610455.890000	-2.125100
285685.320000	7610450.890000	-2.670000
285685.320000	7610445.890000	-3.141000
285685.320000	7610440.890000	-3.607890
285685.320000	7610435.890000	-3.860340
285685.320000	7610430.890000	-4.137000
285685.320000	7610425.890000	-2.990240
285685.320000	7610420.890000	-4.661960
285685.320000	7610415.890000	-4.589000
285685.320000	7610410.890000	-6.070000
285685.320000	7610405.890000	-6.888170
285685.320000	7610400.890000	-7.411260
285685.320000	7610395.890000	-7.693070
285685.320000	7610390.890000	-8.140020
285685.320000	7610385.890000	-8.515520
285690.320000	7611385.890000	-7.023830
285690.320000	7611380.890000	-5.154400
285690.320000	7611375.890000	-5.879410
285690.320000	7611370.890000	-4.311550
285690.320000	7611365.890000	-4.643930
285690.320000	7611360.890000	-3.886170
285690.320000	7611355.890000	-4.002000
285690.320000	7611350.890000	-1.991000
285690.320000	7611345.890000	-2.404000
285690.320000	7611340.890000	-1.987580
285690.320000	7611335.890000	-3.213020
285690.320000	7611330.890000	-2.269000
285690.320000	7611325.890000	-1.288910
285690.320000	7611320.890000	-1.369830
285690.320000	7611315.890000	-1.306000
285690.320000	7611310.890000	-1.333590
285690.320000	7611305.890000	-1.292080
285690.320000	7611300.890000	-1.219000
285690.320000	7611295.890000	-1.172000
285690.320000	7611290.890000	-1.220000
285690.320000	7611285.890000	-1.110000
285690.320000	7611280.890000	-0.905000
285690.320000	7611275.890000	-0.857000
285690.320000	7611270.890000	-0.966320
285690.320000	7611265.890000	-0.697000
285690.320000	7611260.890000	-0.892000
285690.320000	7611255.890000	-0.815000
285690.320000	7611250.890000	-0.697000
285690.320000	7611245.890000	-0.678000
285690.320000	7611240.890000	-0.623170
285690.320000	7611235.890000	-0.490000
285690.320000	7611230.890000	-0.509000
285690.320000	7611225.890000	-0.546000
285690.320000	7611220.890000	-0.510120
285690.320000	7611215.890000	-0.571000
285690.320000	7611210.890000	-0.547000
285690.320000	7611205.890000	-0.530000
285690.320000	7611200.890000	-0.462000
285690.320000	7611195.890000	-0.646000
285690.320000	7611190.890000	-0.692000
285690.320000	7611185.890000	-0.484000
285690.320000	7611180.890000	-0.499000
285690.320000	7611175.890000	-0.423000
285690.320000	7611170.890000	-0.397030
285690.320000	7611165.890000	-0.355000
285690.320000	7611160.890000	-0.335000
285690.320000	7611155.890000	-0.274000
285690.320000	7611150.890000	-0.316000
285690.320000	7611145.890000	-0.308000
285690.320000	7611140.890000	-0.310870
285690.320000	7611135.890000	-0.375000
285690.320000	7611130.890000	-0.265000
285690.320000	7611125.890000	-0.359370
285690.320000	7611120.890000	-0.277000
285690.320000	7611115.890000	-0.334420
285690.320000	7611110.890000	-0.277610
285690.320000	7611105.890000	-0.252000
285690.320000	7611100.890000	-0.273000
285690.320000	7611095.890000	-0.283000
285690.320000	7611090.890000	-0.259000
285690.320000	7611085.890000	-0.218000
285690.320000	7611080.890000	-0.259000
285690.320000	7611075.890000	-0.254000
285690.320000	7611070.890000	-0.252000
285690.320000	7611065.890000	-0.286000
285690.320000	7611060.890000	-0.301000
285690.320000	7611055.890000	-0.271000
285690.320000	7611050.890000	-0.257000
285690.320000	7611045.890000	-0.346000
285690.320000	7611040.890000	-0.219970
285690.320000	7611035.890000	-0.324900
285690.320000	7611030.890000	-0.253380
285690.320000	7611025.890000	-0.321000
285690.320000	7611020.890000	-0.346000
285690.320000	7611015.890000	-0.298000
285690.320000	7611010.890000	-0.386000
285690.320000	7611005.890000	-0.343850
285690.320000	7611000.890000	-0.375000
285690.320000	7610995.890000	-0.362000
285690.320000	7610990.890000	-0.496000
285690.320000	7610985.890000	-0.361000
285690.320000	7610980.890000	-0.335000
285690.320000	7610975.890000	-0.322000
285690.320000	7610970.890000	-0.376000
285690.320000	7610965.890000	-0.313000
285690.320000	7610960.890000	-0.330000
285690.320000	7610955.890000	-0.380000
285690.320000	7610950.890000	-0.340000
285690.320000	7610945.890000	-0.361200
285690.320000	7610940.890000	-0.366000
285690.320000	7610935.890000	-0.424000
285690.320000	7610930.890000	-0.372000
285690.320000	7610925.890000	-0.449000
285690.320000	7610920.890000	-0.411000
285690.320000	7610915.890000	-0.437000
285690.320000	7610910.890000	-0.502000
285690.320000	7610905.890000	-0.549570
285690.320000	7610900.890000	-0.466000
285690.320000	7610895.890000	-0.491000
285690.320000	7610890.890000	-0.451000
285690.320000	7610885.890000	-0.507000
285690.320000	7610880.890000	-0.478000
285690.320000	7610875.890000	-0.529000
285690.320000	7610870.890000	-0.516000
285690.320000	7610865.890000	-0.510000
285690.320000	7610860.890000	-0.580860
285690.320000	7610855.890000	-0.436000
285690.320000	7610850.890000	-0.532000
285690.320000	7610845.890000	-0.504000
285690.320000	7610840.890000	-0.539000
285690.320000	7610835.890000	-0.507000
285690.320000	7610830.890000	-0.530000
285690.320000	7610825.890000	-0.562000
285690.320000	7610820.890000	-0.686000
285690.320000	7610815.890000	-0.625000
285690.320000	7610810.890000	-0.642000
285690.320000	7610805.890000	-0.554000
285690.320000	7610800.890000	-0.649000
285690.320000	7610795.890000	-0.628000
285690.320000	7610790.890000	-0.584850
285690.320000	7610785.890000	-0.634190
285690.320000	7610780.890000	-0.561000
285690.320000	7610775.890000	-0.560000
285690.320000	7610770.890000	-0.613000
285690.320000	7610765.890000	-0.612160
285690.320000	7610760.890000	-0.637000
285690.320000	7610755.890000	-0.677230
285690.320000	7610750.890000	-0.633360
285690.320000	7610745.890000	-0.683000
285690.320000	7610740.890000	-0.756990
285690.320000	7610735.890000	-0.609000
285690.320000	7610730.890000	-0.823000
285690.320000	7610725.890000	-0.891000
285690.320000	7610720.890000	-0.874070
285690.320000	7610715.890000	-0.902000
285690.320000	7610710.890000	-0.970000
285690.320000	7610705.890000	-1.035000
285690.320000	7610700.890000	-0.865000
285690.320000	7610695.890000	-1.009000
285690.320000	7610690.890000	-1.055000
285690.320000	7610685.890000	-0.914670
285690.320000	7610680.890000	-0.850240
285690.320000	7610675.890000	-0.847000
285690.320000	7610670.890000	-0.868790
285690.320000	7610665.890000	-0.866910
285690.320000	7610660.890000	-0.881000
285690.320000	7610655.890000	-0.910260
285690.320000	7610650.890000	-1.151000
285690.320000	7610645.890000	-0.873340
285690.320000	7610640.890000	-0.762000
285690.320000	7610635.890000	-1.022000
285690.320000	7610630.890000	-0.696090
285690.320000	7610625.890000	-0.841860
285690.320000	7610620.890000	-0.970550
285690.320000	7610615.890000	-0.862000
285690.320000	7610610.890000	-0.922250
285690.320000	7610605.890000	-0.789000
285690.320000	7610600.890000	-1.031890
285690.320000	7610595.890000	-0.999000
285690.320000	7610590.890000	-1.181000
285690.320000	7610585.890000	-0.983620
285690.320000	7610580.890000	-1.104000
285690.320000	7610575.890000	-1.114000
285690.320000	7610570.890000	-1.166010
285690.320000	7610565.890000	-1.169000
285690.320000	7610560.890000	-1.278620
285690.320000	7610555.890000	-1.083840
285690.320000	7610550.890000	-0.984000
285690.320000	7610545.890000	-0.870000
285690.320000	7610540.890000	-0.687000
285690.320000	7610535.890000	-1.230000
285690.320000	7610530.890000	-1.079000
285690.320000	7610525.890000	-0.983000
285690.320000	7610520.890000	-1.051000
285690.320000	7610515.890000	-0.979000
285690.320000	7610510.890000	-0.946000
285690.320000	7610505.890000	-0.829000
285690.320000	7610500.890000	-0.899000
285690.320000	7610495.890000	-0.861310
285690.320000	7610490.890000	-1.000000
285690.320000	7610485.890000	-0.814000
285690.320000	7610480.890000	-1.104190
285690.320000	7610475.890000	-1.265000
285690.320000	7610470.890000	-1.474930
285690.320000	7610465.890000	-1.639000
285690.320000	7610460.890000	-1.982000
285690.320000	7610455.890000	-1.976000
285690.320000	7610450.890000	-2.523000
285690.320000	7610445.890000	-2.633000
285690.320000	7610440.890000	-3.494000
285690.320000	7610435.890000	-3.851000
285690.320000	7610430.890000	-4.035000
285690.320000	7610425.890000	-3.048000
285690.320000	7610420.890000	-3.657000
285690.320000	7610415.890000	-4.716000
285690.320000	7610410.890000	-6.129600
285690.320000	7610405.890000	-6.479000
285690.320000	7610400.890000	-7.300850
285690.320000	7610395.890000	-7.614000
285690.320000	7610390.890000	-8.043410
285690.320000	7610385.890000	-8.510010
285695.320000	7611395.890000	-6.153850
285695.320000	7611390.890000	-6.259000
285695.320000	7611385.890000	-6.279600
285695.320000	7611380.890000	-6.187000
285695.320000	7611375.890000	-5.097500
285695.320000	7611370.890000	-5.248000
285695.320000	7611365.890000	-4.122000
285695.320000	7611360.890000	-4.761000
285695.320000	7611355.890000	-2.491000
285695.320000	7611350.890000	-2.119000
285695.320000	7611345.890000	-1.690000
285695.320000	7611340.890000	-1.999500
285695.320000	7611335.890000	-1.719000
285695.320000	7611330.890000	-1.628220
285695.320000	7611325.890000	-1.304230
285695.320000	7611320.890000	-1.036000
285695.320000	7611315.890000	-1.259000
285695.320000	7611310.890000	-1.747490
285695.320000	7611305.890000	-1.220000
285695.320000	7611300.890000	-1.526460
285695.320000	7611295.890000	-1.190000
285695.320000	7611290.890000	-1.000000
285695.320000	7611285.890000	-0.941000
285695.320000	7611280.890000	-1.063000
285695.320000	7611275.890000	-0.911000
285695.320000	7611270.890000	-1.012800
285695.320000	7611265.890000	-0.888350
285695.320000	7611260.890000	-0.818000
285695.320000	7611255.890000	-0.808000
285695.320000	7611250.890000	-0.701000
285695.320000	7611245.890000	-0.546000
285695.320000	7611240.890000	-0.642510
285695.320000	7611235.890000	-0.569000
285695.320000	7611230.890000	-0.582000
285695.320000	7611225.890000	-0.509000
285695.320000	7611220.890000	-0.538000
285695.320000	7611215.890000	-0.581170
285695.320000	7611210.890000	-0.581000
285695.320000	7611205.890000	-0.574000
285695.320000	7611200.890000	-0.726000
285695.320000	7611195.890000	-0.515000
285695.320000	7611190.890000	-0.492000
285695.320000	7611185.890000	-0.463000
285695.320000	7611180.890000	-0.446140
285695.320000	7611175.890000	-0.398000
285695.320000	7611170.890000	-0.386000
285695.320000	7611165.890000	-0.360000
285695.320000	7611160.890000	-0.335000
285695.320000	7611155.890000	-0.340000
285695.320000	7611150.890000	-0.343000
285695.320000	7611145.890000	-0.304000
285695.320000	7611140.890000	-0.323000
285695.320000	7611135.890000	-0.292000
285695.320000	7611130.890000	-0.265000
285695.320000	7611125.890000	-0.303810
285695.320000	7611120.890000	-0.211000
285695.320000	7611115.890000	-0.273710
285695.320000	7611110.890000	-0.275000
285695.320000	7611105.890000	-0.254000
285695.320000	7611100.890000	-0.254320
285695.320000	7611095.890000	-0.354000
285695.320000	7611090.890000	-0.255000
285695.320000	7611085.890000	-0.211000
285695.320000	7611080.890000	-0.242000
285695.320000	7611075.890000	-0.247000
285695.320000	7611070.890000	-0.219000
285695.320000	7611065.890000	-0.240000
285695.320000	7611060.890000	-0.230000
285695.320000	7611055.890000	-0.181000
285695.320000	7611050.890000	-0.255000
285695.320000	7611045.890000	-0.260000
285695.320000	7611040.890000	-0.269000
285695.320000	7611035.890000	-0.272000
285695.320000	7611030.890000	-0.278000
285695.320000	7611025.890000	-0.238000
285695.320000	7611020.890000	-0.340000
285695.320000	7611015.890000	-0.310930
285695.320000	7611010.890000	-0.286000
285695.320000	7611005.890000	-0.374000
285695.320000	7611000.890000	-0.352000
285695.320000	7610995.890000	-0.280000
285695.320000	7610990.890000	-0.297000
285695.320000	7610985.890000	-0.327490
285695.320000	7610980.890000	-0.311860
285695.320000	7610975.890000	-0.280000
285695.320000	7610970.890000	-0.291000
285695.320000	7610965.890000	-0.333950
285695.320000	7610960.890000	-0.353000
285695.320000	7610955.890000	-0.384700
285695.320000	7610950.890000	-0.323000
285695.320000	7610945.890000	-0.359000
285695.320000	7610940.890000	-0.348000
285695.320000	7610935.890000	-0.361000
285695.320000	7610930.890000	-0.371000
285695.320000	7610925.890000	-0.452000
285695.320000	7610920.890000	-0.404000
285695.320000	7610915.890000	-0.433500
285695.320000	7610910.890000	-0.531000
285695.320000	7610905.890000	-0.544000
285695.320000	7610900.890000	-0.637000
285695.320000	7610895.890000	-0.539000
285695.320000	7610890.890000	-0.488000
285695.320000	7610885.890000	-0.471000
285695.320000	7610880.890000	-0.683000
285695.320000	7610875.890000	-0.517000
285695.320000	7610870.890000	-0.527000
285695.320000	7610865.890000	-0.583000
285695.320000	7610860.890000	-0.576000
285695.320000	7610855.890000	-0.506000
285695.320000	7610850.890000	-0.563000
285695.320000	7610845.890000	-0.554000
285695.320000	7610840.890000	-0.492000
285695.320000	7610835.890000	-0.529000
285695.320000	7610830.890000	-0.504000
285695.320000	7610825.890000	-0.602000
285695.320000	7610820.890000	-0.576000
285695.320000	7610815.890000	-0.557000
285695.320000	7610810.890000	-0.573210
285695.320000	7610805.890000	-0.649910
285695.320000	7610800.890000	-0.697000
285695.320000	7610795.890000	-0.579000
285695.320000	7610790.890000	-0.695000
285695.320000	7610785.890000	-0.628000
285695.320000	7610780.890000	-0.578000
285695.320000	7610775.890000	-0.617000
285695.320000	7610770.890000	-0.609000
285695.320000	7610765.890000	-0.558000
285695.320000	7610760.890000	-0.623000
285695.320000	7610755.890000	-0.672000
285695.320000	7610750.890000	-0.689000
285695.320000	7610745.890000	-0.667000
285695.320000	7610740.890000	-0.698000
285695.320000	7610735.890000	-0.740180
285695.320000	7610730.890000	-0.778000
285695.320000	7610725.890000	-0.945500
285695.320000	7610720.890000	-0.871000
285695.320000	7610715.890000	-0.790000
285695.320000	7610710.890000	-0.747000
285695.320000	7610705.890000	-0.993000
285695.320000	7610700.890000	-1.026000
285695.320000	7610695.890000	-0.957120
285695.320000	7610690.890000	-1.152000
285695.320000	7610685.890000	-0.864000
285695.320000	7610680.890000	-0.739000
285695.320000	7610675.890000	-0.867000
285695.320000	7610670.890000	-0.898000
285695.320000	7610665.890000	-0.824390
285695.320000	7610660.890000	-0.949050
285695.320000	7610655.890000	-1.022270
285695.320000	7610650.890000	-0.837000
285695.320000	7610645.890000	-1.007230
285695.320000	7610640.890000	-0.740000
285695.320000	7610635.890000	-0.826930
285695.320000	7610630.890000	-0.847000
285695.320000	7610625.890000	-0.998000
285695.320000	7610620.890000	-0.876800
285695.320000	7610615.890000	-0.779000
285695.320000	7610610.890000	-0.744000
285695.320000	7610605.890000	-0.823000
285695.320000	7610600.890000	-0.937000
285695.320000	7610595.890000	-1.183000
285695.320000	7610590.890000	-0.899000
285695.320000	7610585.890000	-0.977000
285695.320000	7610580.890000	-0.975000
285695.320000	7610575.890000	-1.018000
285695.320000	7610570.890000	-1.056000
285695.320000	7610565.890000	-1.056640
285695.320000	7610560.890000	-1.129110
285695.320000	7610555.890000	-0.830410
285695.320000	7610550.890000	-0.810790
285695.320000	7610545.890000	-0.699000
285695.320000	7610540.890000	-0.956000
285695.320000	7610535.890000	-0.980000
285695.320000	7610530.890000	-0.827000
285695.320000	7610525.890000	-0.919000
285695.320000	7610520.890000	-1.026670
285695.320000	7610515.890000	-1.042080
285695.320000	7610510.890000	-1.050000
285695.320000	7610505.890000	-0.967000
285695.320000	7610500.890000	-0.967000
285695.320000	7610495.890000	-0.791000
285695.320000	7610490.890000	-0.733000
285695.320000	7610485.890000	-0.726000
285695.320000	7610480.890000	-1.042000
285695.320000	7610475.890000	-1.212000
285695.320000	7610470.890000	-1.357000
285695.320000	7610465.890000	-1.491150
285695.320000	7610460.890000	-1.837900
285695.320000	7610455.890000	-2.371000
285695.320000	7610450.890000	-1.978970
285695.320000	7610445.890000	-2.874000
285695.320000	7610440.890000	-2.394000
285695.320000	7610435.890000	-3.670000
285695.320000	7610430.890000	-3.102380
285695.320000	7610425.890000	-3.913430
285695.320000	7610420.890000	-3.493000
285695.320000	7610415.890000	-5.142000
285695.320000	7610410.890000	-5.861000
285695.320000	7610405.890000	-6.721000
285695.320000	7610400.890000	-6.949000
285695.320000	7610395.890000	-7.457000
285695.320000	7610390.890000	-7.950730
285695.320000	7610385.890000	-8.342000
285700.320000	7611400.890000	-5.720450
285700.320000	7611395.890000	-6.618000
285700.320000	7611390.890000	-5.834000
285700.320000	7611385.890000	-6.404150
285700.320000	7611380.890000	-5.126000
285700.320000	7611375.890000	-4.894730
285700.320000	7611370.890000	-4.183000
285700.320000	7611365.890000	-4.010000
285700.320000	7611360.890000	-3.681000
285700.320000	7611355.890000	-2.129000
285700.320000	7611350.890000	-2.013000
285700.320000	7611345.890000	-1.677000
285700.320000	7611340.890000	-1.822330
285700.320000	7611335.890000	-2.108000
285700.320000	7611330.890000	-1.347000
285700.320000	7611325.890000	-1.456000
285700.320000	7611320.890000	-1.117000
285700.320000	7611315.890000	-2.102010
285700.320000	7611310.890000	-2.007930
285700.320000	7611305.890000	-1.922000
285700.320000	7611300.890000	-1.407000
285700.320000	7611295.890000	-1.333000
285700.320000	7611290.890000	-1.113000
285700.320000	7611285.890000	-0.891000
285700.320000	7611280.890000	-0.983000
285700.320000	7611275.890000	-0.837000
285700.320000	7611270.890000	-0.998000
285700.320000	7611265.890000	-0.757750
285700.320000	7611260.890000	-0.785680
285700.320000	7611255.890000	-0.665000
285700.320000	7611250.890000	-0.668000
285700.320000	7611245.890000	-0.554000
285700.320000	7611240.890000	-0.535340
285700.320000	7611235.890000	-0.520000
285700.320000	7611230.890000	-0.551990
285700.320000	7611225.890000	-0.653060
285700.320000	7611220.890000	-0.542000
285700.320000	7611215.890000	-0.616700
285700.320000	7611210.890000	-0.583000
285700.320000	7611205.890000	-0.667810
285700.320000	7611200.890000	-0.531000
285700.320000	7611195.890000	-0.443000
285700.320000	7611190.890000	-0.496000
285700.320000	7611185.890000	-0.406000
285700.320000	7611180.890000	-0.401000
285700.320000	7611175.890000	-0.364000
285700.320000	7611170.890000	-0.342000
285700.320000	7611165.890000	-0.329000
285700.320000	7611160.890000	-0.346000
285700.320000	7611155.890000	-0.349000
285700.320000	7611150.890000	-0.342000
285700.320000	7611145.890000	-0.320000
285700.320000	7611140.890000	-0.307000
285700.320000	7611135.890000	-0.300000
285700.320000	7611130.890000	-0.304000
285700.320000	7611125.890000	-0.221000
285700.320000	7611120.890000	-0.280000
285700.320000	7611115.890000	-0.320000
285700.320000	7611110.890000	-0.300030
285700.320000	7611105.890000	-0.310000
285700.320000	7611100.890000	-0.318500
285700.320000	7611095.890000	-0.274000
285700.320000	7611090.890000	-0.207000
285700.320000	7611085.890000	-0.267000
285700.320000	7611080.890000	-0.230000
285700.320000	7611075.890000	-0.283000
285700.320000	7611070.890000	-0.228000
285700.320000	7611065.890000	-0.257000
285700.320000	7611060.890000	-0.239000
285700.320000	7611055.890000	-0.186000
285700.320000	7611050.890000	-0.310540
285700.320000	7611045.890000	-0.244000
285700.320000	7611040.890000	-0.235000
285700.320000	7611035.890000	-0.261000
285700.320000	7611030.890000	-0.195000
285700.320000	7611025.890000	-0.262000
285700.320000	7611020.890000	-0.254000
285700.320000	7611015.890000	-0.272760
285700.320000	7611010.890000	-0.276000
285700.320000	7611005.890000	-0.323000
285700.320000	7611000.890000	-0.330260
285700.320000	7610995.890000	-0.316260
285700.320000	7610990.890000	-0.318000
285700.320000	7610985.890000	-0.287000
285700.320000	7610980.890000	-0.314000
285700.320000	7610975.890000	-0.418000
285700.320000	7610970.890000	-0.325000
285700.320000	7610965.890000	-0.364000
285700.320000	7610960.890000	-0.340000
285700.320000	7610955.890000	-0.343000
285700.320000	7610950.890000	-0.332000
285700.320000	7610945.890000	-0.336670
285700.320000	7610940.890000	-0.355000
285700.320000	7610935.890000	-0.356000
285700.320000	7610930.890000	-0.436750
285700.320000	7610925.890000	-0.418360
285700.320000	7610920.890000	-0.385000
285700.320000	7610915.890000	-0.423000
285700.320000	7610910.890000	-0.464650
285700.320000	7610905.890000	-0.462000
285700.320000	7610900.890000	-0.520580
285700.320000	7610895.890000	-0.585000
285700.320000	7610890.890000	-0.582000
285700.320000	7610885.890000	-0.439000
285700.320000	7610880.890000	-0.558000
285700.320000	7610875.890000	-0.639210
285700.320000	7610870.890000	-0.497470
285700.320000	7610865.890000	-0.567000
285700.320000	7610860.890000	-0.535300
285700.320000	7610855.890000	-0.509000
285700.320000	7610850.890000	-0.524000
285700.320000	7610845.890000	-0.712800
285700.320000	7610840.890000	-0.523000
285700.320000	7610835.890000	-0.519000
285700.320000	7610830.890000	-0.588000
285700.320000	7610825.890000	-0.555000
285700.320000	7610820.890000	-0.581000
285700.320000	7610815.890000	-0.656000
285700.320000	7610810.890000	-0.574000
285700.320000	7610805.890000	-0.569000
285700.320000	7610800.890000	-0.554000
285700.320000	7610795.890000	-0.658000
285700.320000	7610790.890000	-0.689000
285700.320000	7610785.890000	-0.596000
285700.320000	7610780.890000	-0.571000
285700.320000	7610775.890000	-0.705000
285700.320000	7610770.890000	-0.521000
285700.320000	7610765.890000	-0.538000
285700.320000	7610760.890000	-0.534000
285700.320000	7610755.890000	-0.594000
285700.320000	7610750.890000	-0.530000
285700.320000	7610745.890000	-0.638100
285700.320000	7610740.890000	-0.662000
285700.320000	7610735.890000	-0.772000
285700.320000	7610730.890000	-0.694000
285700.320000	7610725.890000	-0.803000
285700.320000	7610720.890000	-0.808940
285700.320000	7610715.890000	-0.862000
285700.320000	7610710.890000	-0.914710
285700.320000	7610705.890000	-0.940000
285700.320000	7610700.890000	-0.952000
285700.320000	7610695.890000	-0.902000
285700.320000	7610690.890000	-1.043000
285700.320000	7610685.890000	-1.129000
285700.320000	7610680.890000	-0.888000
285700.320000	7610675.890000	-0.903000
285700.320000	7610670.890000	-1.159000
285700.320000	7610665.890000	-0.893670
285700.320000	7610660.890000	-0.862460
285700.320000	7610655.890000	-0.932000
285700.320000	7610650.890000	-0.843250
285700.320000	7610645.890000	-0.840000
285700.320000	7610640.890000	-0.914000
285700.320000	7610635.890000	-0.813000
285700.320000	7610630.890000	-0.856520
285700.320000	7610625.890000	-1.081000
285700.320000	7610620.890000	-0.909000
285700.320000	7610615.890000	-0.840000
285700.320000	7610610.890000	-0.816000
285700.320000	7610605.890000	-0.872090
285700.320000	7610600.890000	-1.019000
285700.320000	7610595.890000	-1.023000
285700.320000	7610590.890000	-0.902000
285700.320000	7610585.890000	-0.889000
285700.320000	7610580.890000	-0.957040
285700.320000	7610575.890000	-1.105800
285700.320000	7610570.890000	-1.036000
285700.320000	7610565.890000	-1.011070
285700.320000	7610560.890000	-1.136350
285700.320000	7610555.890000	-0.932120
285700.320000	7610550.890000	-0.866000
285700.320000	7610545.890000	-1.061260
285700.320000	7610540.890000	-0.758000
285700.320000	7610535.890000	-0.811690
285700.320000	7610530.890000	-0.780000
285700.320000	7610525.890000	-0.712000
285700.320000	7610520.890000	-0.970000
285700.320000	7610515.890000	-0.857000
285700.320000	7610510.890000	-0.937000
285700.320000	7610505.890000	-0.858000
285700.320000	7610500.890000	-0.771000
285700.320000	7610495.890000	-0.719000
285700.320000	7610490.890000	-0.605000
285700.320000	7610485.890000	-0.861070
285700.320000	7610480.890000	-0.864000
285700.320000	7610475.890000	-1.100000
285700.320000	7610470.890000	-1.078000
285700.320000	7610465.890000	-1.369000
285700.320000	7610460.890000	-1.667000
285700.320000	7610455.890000	-1.801000
285700.320000	7610450.890000	-2.183000
285700.320000	7610445.890000	-2.780590
285700.320000	7610440.890000	-3.412830
285700.320000	7610435.890000	-3.604210
285700.320000	7610430.890000	-2.787000
285700.320000	7610425.890000	-3.855460
285700.320000	7610420.890000	-4.757840
285700.320000	7610415.890000	-5.306000
285700.320000	7610410.890000	-5.933000
285700.320000	7610405.890000	-6.294000
285700.320000	7610400.890000	-6.855000
285700.320000	7610395.890000	-7.416870
285700.320000	7610390.890000	-7.870280
285700.320000	7610385.890000	-8.186380
285700.320000	7610380.890000	-8.497720
285705.320000	7611400.890000	-5.785900
285705.320000	7611395.890000	-6.421100
285705.320000	7611390.890000	-6.538360
285705.320000	7611385.890000	-5.808000
285705.320000	7611380.890000	-4.889260
285705.320000	7611375.890000	-4.705000
285705.320000	7611370.890000	-5.134000
285705.320000	7611365.890000	-4.376000
285705.320000	7611360.890000	-2.752390
285705.320000	7611355.890000	-2.422170
285705.320000	7611350.890000	-1.830840
285705.320000	7611345.890000	-1.658000
285705.320000	7611340.890000	-1.538000
285705.320000	7611335.890000	-1.616000
285705.320000	7611330.890000	-1.899070
285705.320000	7611325.890000	-2.637000
285705.320000	7611320.890000	-1.267000
285705.320000	7611315.890000	-1.672000
285705.320000	7611310.890000	-2.152640
285705.320000	7611305.890000	-1.383560
285705.320000	7611300.890000	-1.110860
285705.320000	7611295.890000	-1.204000
285705.320000	7611290.890000	-1.114320
285705.320000	7611285.890000	-0.907000
285705.320000	7611280.890000	-0.973000
285705.320000	7611275.890000	-0.698000
285705.320000	7611270.890000	-0.778000
285705.320000	7611265.890000	-0.704000
285705.320000	7611260.890000	-0.653000
285705.320000	7611255.890000	-0.522000
285705.320000	7611250.890000	-0.597000
285705.320000	7611245.890000	-0.573000
285705.320000	7611240.890000	-0.607000
285705.320000	7611235.890000	-0.600000
285705.320000	7611230.890000	-0.525660
285705.320000	7611225.890000	-0.592000
285705.320000	7611220.890000	-0.520000
285705.320000	7611215.890000	-0.544000
285705.320000	7611210.890000	-0.724000
285705.320000	7611205.890000	-0.565000
285705.320000	7611200.890000	-0.348000
285705.320000	7611195.890000	-0.479000
285705.320000	7611190.890000	-0.408000
285705.320000	7611185.890000	-0.420800
285705.320000	7611180.890000	-0.414000
285705.320000	7611175.890000	-0.352000
285705.320000	7611170.890000	-0.355000
285705.320000	7611165.890000	-0.308000
285705.320000	7611160.890000	-0.337000
285705.320000	7611155.890000	-0.402640
285705.320000	7611150.890000	-0.332000
285705.320000	7611145.890000	-0.362000
285705.320000	7611140.890000	-0.318000
285705.320000	7611135.890000	-0.308000
285705.320000	7611130.890000	-0.253000
285705.320000	7611125.890000	-0.326000
285705.320000	7611120.890000	-0.288870
285705.320000	7611115.890000	-0.199000
285705.320000	7611110.890000	-0.267000
285705.320000	7611105.890000	-0.259000
285705.320000	7611100.890000	-0.271350
285705.320000	7611095.890000	-0.293000
285705.320000	7611090.890000	-0.265000
285705.320000	7611085.890000	-0.228000
285705.320000	7611080.890000	-0.246000
285705.320000	7611075.890000	-0.218500
285705.320000	7611070.890000	-0.277000
285705.320000	7611065.890000	-0.246000
285705.320000	7611060.890000	-0.234000
285705.320000	7611055.890000	-0.220000
285705.320000	7611050.890000	-0.225000
285705.320000	7611045.890000	-0.281000
285705.320000	7611040.890000	-0.282940
285705.320000	7611035.890000	-0.224000
285705.320000	7611030.890000	-0.209000
285705.320000	7611025.890000	-0.202660
285705.320000	7611020.890000	-0.205000
285705.320000	7611015.890000	-0.240000
285705.320000	7611010.890000	-0.213000
285705.320000	7611005.890000	-0.198000
285705.320000	7611000.890000	-0.224000
285705.320000	7610995.890000	-0.297000
285705.320000	7610990.890000	-0.267000
285705.320000	7610985.890000	-0.292000
285705.320000	7610980.890000	-0.293000
285705.320000	7610975.890000	-0.328600
285705.320000	7610970.890000	-0.568970
285705.320000	7610965.890000	-0.344560
285705.320000	7610960.890000	-0.332000
285705.320000	7610955.890000	-0.339440
285705.320000	7610950.890000	-0.424000
285705.320000	7610945.890000	-0.382000
285705.320000	7610940.890000	-0.317000
285705.320000	7610935.890000	-0.338000
285705.320000	7610930.890000	-0.360000
285705.320000	7610925.890000	-0.405000
285705.320000	7610920.890000	-0.387000
285705.320000	7610915.890000	-0.387000
285705.320000	7610910.890000	-0.437000
285705.320000	7610905.890000	-0.439000
285705.320000	7610900.890000	-0.452580
285705.320000	7610895.890000	-0.489790
285705.320000	7610890.890000	-0.470090
285705.320000	7610885.890000	-0.450000
285705.320000	7610880.890000	-0.552000
285705.320000	7610875.890000	-0.549270
285705.320000	7610870.890000	-0.501000
285705.320000	7610865.890000	-0.489000
285705.320000	7610860.890000	-0.579770
285705.320000	7610855.890000	-0.541000
285705.320000	7610850.890000	-0.547000
285705.320000	7610845.890000	-0.541640
285705.320000	7610840.890000	-0.591000
285705.320000	7610835.890000	-0.663000
285705.320000	7610830.890000	-0.613000
285705.320000	7610825.890000	-0.627980
285705.320000	7610820.890000	-0.529000
285705.320000	7610815.890000	-0.583000
285705.320000	7610810.890000	-0.567000
285705.320000	7610805.890000	-0.596000
285705.320000	7610800.890000	-0.554000
285705.320000	7610795.890000	-0.661000
285705.320000	7610790.890000	-0.684000
285705.320000	7610785.890000	-0.599000
285705.320000	7610780.890000	-0.527000
285705.320000	7610775.890000	-0.573000
285705.320000	7610770.890000	-0.549000
285705.320000	7610765.890000	-0.551000
285705.320000	7610760.890000	-0.627000
285705.320000	7610755.890000	-0.581910
285705.320000	7610750.890000	-0.550000
285705.320000	7610745.890000	-0.581000
285705.320000	7610740.890000	-0.663000
285705.320000	7610735.890000	-0.764000
285705.320000	7610730.890000	-0.751000
285705.320000	7610725.890000	-0.725000
285705.320000	7610720.890000	-0.924000
285705.320000	7610715.890000	-0.976000
285705.320000	7610710.890000	-0.935000
285705.320000	7610705.890000	-1.033000
285705.320000	7610700.890000	-0.959000
285705.320000	7610695.890000	-0.805000
285705.320000	7610690.890000	-1.130970
285705.320000	7610685.890000	-1.005000
285705.320000	7610680.890000	-0.989810
285705.320000	7610675.890000	-1.087010
285705.320000	7610670.890000	-1.147370
285705.320000	7610665.890000	-1.080400
285705.320000	7610660.890000	-1.182000
285705.320000	7610655.890000	-1.035000
285705.320000	7610650.890000	-0.802000
285705.320000	7610645.890000	-0.973110
285705.320000	7610640.890000	-0.785000
285705.320000	7610635.890000	-0.864000
285705.320000	7610630.890000	-0.785000
285705.320000	7610625.890000	-0.992000
285705.320000	7610620.890000	-0.881830
285705.320000	7610615.890000	-0.860000
285705.320000	7610610.890000	-0.841790
285705.320000	7610605.890000	-0.895300
285705.320000	7610600.890000	-0.767000
285705.320000	7610595.890000	-0.959860
285705.320000	7610590.890000	-0.952000
285705.320000	7610585.890000	-0.955000
285705.320000	7610580.890000	-1.203520
285705.320000	7610575.890000	-0.924000
285705.320000	7610570.890000	-1.184000
285705.320000	7610565.890000	-1.128930
285705.320000	7610560.890000	-0.917000
285705.320000	7610555.890000	-1.050800
285705.320000	7610550.890000	-0.874000
285705.320000	7610545.890000	-1.163000
285705.320000	7610540.890000	-1.067000
285705.320000	7610535.890000	-0.692000
285705.320000	7610530.890000	-0.882670
285705.320000	7610525.890000	-1.081700
285705.320000	7610520.890000	-0.943000
285705.320000	7610515.890000	-1.041000
285705.320000	7610510.890000	-0.947000
285705.320000	7610505.890000	-0.967000
285705.320000	7610500.890000	-0.736000
285705.320000	7610495.890000	-0.580000
285705.320000	7610490.890000	-0.690000
285705.320000	7610485.890000	-0.849720
285705.320000	7610480.890000	-0.965000
285705.320000	7610475.890000	-1.060000
285705.320000	7610470.890000	-1.313000
285705.320000	7610465.890000	-1.267000
285705.320000	7610460.890000	-1.572000
285705.320000	7610455.890000	-1.673710
285705.320000	7610450.890000	-2.172940
285705.320000	7610445.890000	-2.365720
285705.320000	7610440.890000	-3.090000
285705.320000	7610435.890000	-3.446000
285705.320000	7610430.890000	-2.691000
285705.320000	7610425.890000	-3.719000
285705.320000	7610420.890000	-4.742000
285705.320000	7610415.890000	-4.312000
285705.320000	7610410.890000	-5.511000
285705.320000	7610405.890000	-6.334000
285705.320000	7610400.890000	-6.811000
285705.320000	7610395.890000	-7.084000
285705.320000	7610390.890000	-7.718000
285705.320000	7610385.890000	-8.073000
285705.320000	7610380.890000	-8.364730
285710.320000	7611405.890000	-5.578490
285710.320000	7611400.890000	-5.851340
285710.320000	7611395.890000	-5.719330
285710.320000	7611390.890000	-5.692000
285710.320000	7611385.890000	-6.133190
285710.320000	7611380.890000	-4.889000
285710.320000	7611375.890000	-5.015110
285710.320000	7611370.890000	-4.182000
285710.320000	7611365.890000	-3.416190
285710.320000	7611360.890000	-2.643000
285710.320000	7611355.890000	-2.147000
285710.320000	7611350.890000	-2.369170
285710.320000	7611345.890000	-1.726000
285710.320000	7611340.890000	-2.029140
285710.320000	7611335.890000	-2.554600
285710.320000	7611330.890000	-2.437770
285710.320000	7611325.890000	-1.306970
285710.320000	7611320.890000	-1.482000
285710.320000	7611315.890000	-1.362000
285710.320000	7611310.890000	-1.821000
285710.320000	7611305.890000	-1.477000
285710.320000	7611300.890000	-1.371120
285710.320000	7611295.890000	-1.057000
285710.320000	7611290.890000	-1.065470
285710.320000	7611285.890000	-1.083290
285710.320000	7611280.890000	-0.714000
285710.320000	7611275.890000	-0.814000
285710.320000	7611270.890000	-0.647000
285710.320000	7611265.890000	-0.512000
285710.320000	7611260.890000	-0.707960
285710.320000	7611255.890000	-0.515000
285710.320000	7611250.890000	-0.557000
285710.320000	7611245.890000	-0.631000
285710.320000	7611240.890000	-0.626000
285710.320000	7611235.890000	-0.533000
285710.320000	7611230.890000	-0.571000
285710.320000	7611225.890000	-0.672000
285710.320000	7611220.890000	-0.634000
285710.320000	7611215.890000	-0.507000
285710.320000	7611210.890000	-0.531000
285710.320000	7611205.890000	-0.512670
285710.320000	7611200.890000	-0.453000
285710.320000	7611195.890000	-0.426720
285710.320000	7611190.890000	-0.432000
285710.320000	7611185.890000	-0.394000
285710.320000	7611180.890000	-0.353000
285710.320000	7611175.890000	-0.318000
285710.320000	7611170.890000	-0.325000
285710.320000	7611165.890000	-0.305000
285710.320000	7611160.890000	-0.331000
285710.320000	7611155.890000	-0.308000
285710.320000	7611150.890000	-0.331000
285710.320000	7611145.890000	-0.282000
285710.320000	7611140.890000	-0.294000
285710.320000	7611135.890000	-0.296000
285710.320000	7611130.890000	-0.309890
285710.320000	7611125.890000	-0.250000
285710.320000	7611120.890000	-0.257000
285710.320000	7611115.890000	-0.256000
285710.320000	7611110.890000	-0.329110
285710.320000	7611105.890000	-0.226000
285710.320000	7611100.890000	-0.273000
285710.320000	7611095.890000	-0.306500
285710.320000	7611090.890000	-0.315000
285710.320000	7611085.890000	-0.254000
285710.320000	7611080.890000	-0.255000
285710.320000	7611075.890000	-0.181000
285710.320000	7611070.890000	-0.219000
285710.320000	7611065.890000	-0.243000
285710.320000	7611060.890000	-0.248000
285710.320000	7611055.890000	-0.219000
285710.320000	7611050.890000	-0.219000
285710.320000	7611045.890000	-0.302040
285710.320000	7611040.890000	-0.263000
285710.320000	7611035.890000	-0.259000
285710.320000	7611030.890000	-0.239000
285710.320000	7611025.890000	-0.256710
285710.320000	7611020.890000	-0.239000
285710.320000	7611015.890000	-0.230000
285710.320000	7611010.890000	-0.216000
285710.320000	7611005.890000	-0.279000
285710.320000	7611000.890000	-0.225000
285710.320000	7610995.890000	-0.216000
285710.320000	7610990.890000	-0.224000
285710.320000	7610985.890000	-0.199000
285710.320000	7610980.890000	-0.269090
285710.320000	7610975.890000	-0.277000
285710.320000	7610970.890000	-0.270000
285710.320000	7610965.890000	-0.386000
285710.320000	7610960.890000	-0.333000
285710.320000	7610955.890000	-0.274000
285710.320000	7610950.890000	-0.351000
285710.320000	7610945.890000	-0.298000
285710.320000	7610940.890000	-0.336000
285710.320000	7610935.890000	-0.307000
285710.320000	7610930.890000	-0.323000
285710.320000	7610925.890000	-0.333000
285710.320000	7610920.890000	-0.419770
285710.320000	7610915.890000	-0.397000
285710.320000	7610910.890000	-0.410000
285710.320000	7610905.890000	-0.429110
285710.320000	7610900.890000	-0.413000
285710.320000	7610895.890000	-0.420000
285710.320000	7610890.890000	-0.459000
285710.320000	7610885.890000	-0.508000
285710.320000	7610880.890000	-0.463000
285710.320000	7610875.890000	-0.462000
285710.320000	7610870.890000	-0.471000
285710.320000	7610865.890000	-0.477970
285710.320000	7610860.890000	-0.555000
285710.320000	7610855.890000	-0.732000
285710.320000	7610850.890000	-0.547000
285710.320000	7610845.890000	-0.623450
285710.320000	7610840.890000	-0.734000
285710.320000	7610835.890000	-0.514000
285710.320000	7610830.890000	-0.551530
285710.320000	7610825.890000	-0.518000
285710.320000	7610820.890000	-0.552000
285710.320000	7610815.890000	-0.520000
285710.320000	7610810.890000	-0.593000
285710.320000	7610805.890000	-0.608000
285710.320000	7610800.890000	-0.590000
285710.320000	7610795.890000	-0.582000
285710.320000	7610790.890000	-0.586000
285710.320000	7610785.890000	-0.590000
285710.320000	7610780.890000	-0.630160
285710.320000	7610775.890000	-0.547000
285710.320000	7610770.890000	-0.610970
285710.320000	7610765.890000	-0.607000
285710.320000	7610760.890000	-0.568000
285710.320000	7610755.890000	-0.568000
285710.320000	7610750.890000	-0.586000
285710.320000	7610745.890000	-0.606000
285710.320000	7610740.890000	-0.613000
285710.320000	7610735.890000	-0.682000
285710.320000	7610730.890000	-0.850000
285710.320000	7610725.890000	-0.948050
285710.320000	7610720.890000	-0.607000
285710.320000	7610715.890000	-0.960680
285710.320000	7610710.890000	-0.910000
285710.320000	7610705.890000	-0.870000
285710.320000	7610700.890000	-0.935710
285710.320000	7610695.890000	-1.025800
285710.320000	7610690.890000	-1.062000
285710.320000	7610685.890000	-0.842000
285710.320000	7610680.890000	-0.928000
285710.320000	7610675.890000	-1.190000
285710.320000	7610670.890000	-0.838000
285710.320000	7610665.890000	-0.765000
285710.320000	7610660.890000	-0.787000
285710.320000	7610655.890000	-1.010000
285710.320000	7610650.890000	-0.995490
285710.320000	7610645.890000	-0.717000
285710.320000	7610640.890000	-0.828000
285710.320000	7610635.890000	-0.807000
285710.320000	7610630.890000	-0.910520
285710.320000	7610625.890000	-0.674000
285710.320000	7610620.890000	-0.956750
285710.320000	7610615.890000	-0.816000
285710.320000	7610610.890000	-0.802700
285710.320000	7610605.890000	-0.730000
285710.320000	7610600.890000	-0.702000
285710.320000	7610595.890000	-0.838000
285710.320000	7610590.890000	-0.917000
285710.320000	7610585.890000	-0.900000
285710.320000	7610580.890000	-1.111570
285710.320000	7610575.890000	-1.090000
285710.320000	7610570.890000	-0.935000
285710.320000	7610565.890000	-1.154000
285710.320000	7610560.890000	-1.072000
285710.320000	7610555.890000	-0.854000
285710.320000	7610550.890000	-0.770000
285710.320000	7610545.890000	-0.947630
285710.320000	7610540.890000	-1.043000
285710.320000	7610535.890000	-0.851900
285710.320000	7610530.890000	-0.722000
285710.320000	7610525.890000	-1.044600
285710.320000	7610520.890000	-1.082000
285710.320000	7610515.890000	-0.809000
285710.320000	7610510.890000	-0.788000
285710.320000	7610505.890000	-0.722250
285710.320000	7610500.890000	-0.814000
285710.320000	7610495.890000	-0.614000
285710.320000	7610490.890000	-0.734000
285710.320000	7610485.890000	-0.596000
285710.320000	7610480.890000	-0.782000
285710.320000	7610475.890000	-1.075860
285710.320000	7610470.890000	-1.351000
285710.320000	7610465.890000	-1.308000
285710.320000	7610460.890000	-1.426000
285710.320000	7610455.890000	-1.945840
285710.320000	7610450.890000	-1.909000
285710.320000	7610445.890000	-1.695440
285710.320000	7610440.890000	-2.327000
285710.320000	7610435.890000	-2.994000
285710.320000	7610430.890000	-3.213000
285710.320000	7610425.890000	-3.835190
285710.320000	7610420.890000	-3.723000
285710.320000	7610415.890000	-4.905000
285710.320000	7610410.890000	-5.159000
285710.320000	7610405.890000	-5.932000
285710.320000	7610400.890000	-6.430000
285710.320000	7610395.890000	-7.000230
285710.320000	7610390.890000	-7.401800
285710.320000	7610385.890000	-6.420600
285710.320000	7610380.890000	-8.219380
285715.320000	7611415.890000	-5.720590
285715.320000	7611410.890000	-6.128000
285715.320000	7611405.890000	-5.705000
285715.320000	7611400.890000	-5.918000
285715.320000	7611395.890000	-5.898860
285715.320000	7611390.890000	-5.672080
285715.320000	7611385.890000	-4.658000
285715.320000	7611380.890000	-4.764520
285715.320000	7611375.890000	-4.767300
285715.320000	7611370.890000	-3.606000
285715.320000	7611365.890000	-2.982410
285715.320000	7611360.890000	-2.277000
285715.320000	7611355.890000	-1.867000
285715.320000	7611350.890000	-2.221150
285715.320000	7611345.890000	-2.730830
285715.320000	7611340.890000	-1.660000
285715.320000	7611335.890000	-1.885000
285715.320000	7611330.890000	-1.534000
285715.320000	7611325.890000	-1.367000
285715.320000	7611320.890000	-1.320000
285715.320000	7611315.890000	-1.470000
285715.320000	7611310.890000	-1.462000
285715.320000	7611305.890000	-1.071000
285715.320000	7611300.890000	-1.294000
285715.320000	7611295.890000	-1.051000
285715.320000	7611290.890000	-1.062370
285715.320000	7611285.890000	-0.947000
285715.320000	7611280.890000	-0.815000
285715.320000	7611275.890000	-0.572000
285715.320000	7611270.890000	-0.691930
285715.320000	7611265.890000	-0.685000
285715.320000	7611260.890000	-0.628000
285715.320000	7611255.890000	-0.565000
285715.320000	7611250.890000	-0.591000
285715.320000	7611245.890000	-0.478000
285715.320000	7611240.890000	-0.555380
285715.320000	7611235.890000	-0.549000
285715.320000	7611230.890000	-0.451000
285715.320000	7611225.890000	-0.454880
285715.320000	7611220.890000	-0.547000
285715.320000	7611215.890000	-0.647000
285715.320000	7611210.890000	-0.554440
285715.320000	7611205.890000	-0.460630
285715.320000	7611200.890000	-0.444000
285715.320000	7611195.890000	-0.407000
285715.320000	7611190.890000	-0.402000
285715.320000	7611185.890000	-0.390000
285715.320000	7611180.890000	-0.353000
285715.320000	7611175.890000	-0.349000
285715.320000	7611170.890000	-0.358000
285715.320000	7611165.890000	-0.354000
285715.320000	7611160.890000	-0.379000
285715.320000	7611155.890000	-0.314000
285715.320000	7611150.890000	-0.349000
285715.320000	7611145.890000	-0.286960
285715.320000	7611140.890000	-0.295000
285715.320000	7611135.890000	-0.279000
285715.320000	7611130.890000	-0.281000
285715.320000	7611125.890000	-0.275000
285715.320000	7611120.890000	-0.307000
285715.320000	7611115.890000	-0.266000
285715.320000	7611110.890000	-0.231000
285715.320000	7611105.890000	-0.266000
285715.320000	7611100.890000	-0.304740
285715.320000	7611095.890000	-0.277440
285715.320000	7611090.890000	-0.241000
285715.320000	7611085.890000	-0.276000
285715.320000	7611080.890000	-0.238000
285715.320000	7611075.890000	-0.232000
285715.320000	7611070.890000	-0.178000
285715.320000	7611065.890000	-0.201000
285715.320000	7611060.890000	-0.232000
285715.320000	7611055.890000	-0.215000
285715.320000	7611050.890000	-0.256500
285715.320000	7611045.890000	-0.237000
285715.320000	7611040.890000	-0.224000
285715.320000	7611035.890000	-0.263000
285715.320000	7611030.890000	-0.230000
285715.320000	7611025.890000	-0.326000
285715.320000	7611020.890000	-0.207000
285715.320000	7611015.890000	-0.212000
285715.320000	7611010.890000	-0.215000
285715.320000	7611005.890000	-0.387000
285715.320000	7611000.890000	-0.253000
285715.320000	7610995.890000	-0.209000
285715.320000	7610990.890000	-0.238000
285715.320000	7610985.890000	-0.269800
285715.320000	7610980.890000	-0.271070
285715.320000	7610975.890000	-0.270000
285715.320000	7610970.890000	-0.247000
285715.320000	7610965.890000	-0.277000
285715.320000	7610960.890000	-0.366000
285715.320000	7610955.890000	-0.275000
285715.320000	7610950.890000	-0.304000
285715.320000	7610945.890000	-0.454880
285715.320000	7610940.890000	-0.427000
285715.320000	7610935.890000	-0.341920
285715.320000	7610930.890000	-0.304000
285715.320000	7610925.890000	-0.304000
285715.320000	7610920.890000	-0.384000
285715.320000	7610915.890000	-0.380000
285715.320000	7610910.890000	-0.354000
