245427.460000	7594239.070000	-1.427000
245427.460000	7594234.070000	-1.594000
245427.460000	7594229.070000	-1.331000
245427.460000	7594224.070000	-1.257000
245427.460000	7594219.070000	-1.564790
245427.460000	7594214.070000	-1.637000
245427.460000	7594209.070000	-1.518000
245427.460000	7594204.070000	-1.506000
245427.460000	7594199.070000	-1.120600
245427.460000	7594194.070000	-1.453000
245427.460000	7594189.070000	-1.483000
245427.460000	7594184.070000	-1.196000
245427.460000	7594179.070000	-1.442000
245427.460000	7594174.070000	-1.117000
245427.460000	7594169.070000	-1.256000
245427.460000	7594164.070000	-1.248000
245427.460000	7594159.070000	-1.197000
245427.460000	7594154.070000	-0.652000
245427.460000	7594149.070000	-0.707000
245427.460000	7594144.070000	-0.713000
245427.460000	7594139.070000	-0.903000
245427.460000	7594134.070000	-1.010000
245427.460000	7594129.070000	-1.057000
245427.460000	7594124.070000	-1.079000
245427.460000	7594119.070000	-0.980000
245427.460000	7594114.070000	-1.063000
245427.460000	7594109.070000	-0.976000
245427.460000	7594104.070000	-1.127000
245427.460000	7594099.070000	-1.140000
245427.460000	7594094.070000	-1.082000
245427.460000	7594089.070000	-1.117000
245427.460000	7594084.070000	-1.100000
245427.460000	7594079.070000	-1.078000
245427.460000	7594074.070000	-1.148000
245427.460000	7594069.070000	-1.185000
245427.460000	7594064.070000	-1.244700
245427.460000	7594059.070000	-1.196000
245427.460000	7594054.070000	-1.225000
245427.460000	7594049.070000	-1.149000
245427.460000	7594044.070000	-1.042000
245427.460000	7594039.070000	-1.064000
245427.460000	7594034.070000	-0.957000
245427.460000	7594029.070000	-0.931000
245427.460000	7594024.070000	-1.029000
245427.460000	7594019.070000	-0.786000
245427.460000	7594014.070000	-0.709000
245427.460000	7594009.070000	-0.752000
245427.460000	7594004.070000	-0.850000
245427.460000	7593999.070000	-0.874000
245427.460000	7593994.070000	-0.763000
245427.460000	7593989.070000	-0.749000
245427.460000	7593984.070000	-0.807000
245427.460000	7593979.070000	-0.806000
245427.460000	7593974.070000	-0.737000
245427.460000	7593969.070000	-0.688000
245427.460000	7593964.070000	-0.709000
245427.460000	7593959.070000	-0.757000
245427.460000	7593954.070000	-0.825000
245427.460000	7593949.070000	-0.790000
245427.460000	7593944.070000	-0.795000
245427.460000	7593939.070000	-0.827000
245427.460000	7593934.070000	-0.865000
245427.460000	7593929.070000	-0.775000
245427.460000	7593924.070000	-0.837000
245427.460000	7593919.070000	-0.865000
245427.460000	7593914.070000	-0.797000
245427.460000	7593909.070000	-0.891500
245427.460000	7593904.070000	-0.834680
245427.460000	7593899.070000	-0.779000
245427.460000	7593894.070000	-0.895000
245427.460000	7593889.070000	-0.877000
245427.460000	7593884.070000	-0.907000
245427.460000	7593879.070000	-0.809000
245427.460000	7593874.070000	-0.891000
245427.460000	7593869.070000	-0.951570
245427.460000	7593864.070000	-0.912000
245427.460000	7593859.070000	-0.897000
245427.460000	7593854.070000	-0.960000
245427.460000	7593849.070000	-0.950000
245427.460000	7593844.070000	-0.918000
245427.460000	7593839.070000	-1.000000
245427.460000	7593834.070000	-1.012270
245427.460000	7593829.070000	-1.001000
245427.460000	7593824.070000	-1.043000
245427.460000	7593819.070000	-1.057000
245427.460000	7593814.070000	-0.918000
245427.460000	7593809.070000	-1.033000
245427.460000	7593804.070000	-1.071000
245427.460000	7593799.070000	-1.040000
245427.460000	7593794.070000	-1.002000
245427.460000	7593789.070000	-1.013000
245427.460000	7593784.070000	-1.036000
245427.460000	7593779.070000	-1.019860
245427.460000	7593774.070000	-1.021000
245427.460000	7593769.070000	-1.067000
245427.460000	7593764.070000	-0.959000
245427.460000	7593759.070000	-1.028500
245427.460000	7593754.070000	-1.025000
245427.460000	7593749.070000	-0.980000
245427.460000	7593744.070000	-0.946360
245427.460000	7593739.070000	-1.013000
245427.460000	7593734.070000	-1.022000
245427.460000	7593729.070000	-0.867350
245427.460000	7593724.070000	-0.783000
245427.460000	7593719.070000	-0.818000
245427.460000	7593714.070000	-0.905000
245427.460000	7593709.070000	-0.715000
245427.460000	7593704.070000	-0.629000
245427.460000	7593699.070000	-0.576000
245427.460000	7593694.070000	-0.496000
245427.460000	7593689.070000	-0.617000
245427.460000	7593684.070000	-0.594000
245427.460000	7593679.070000	-0.586000
245427.460000	7593674.070000	-0.605000
245427.460000	7593669.070000	-0.558000
245427.460000	7593664.070000	-0.513000
245427.460000	7593659.070000	-0.489000
245427.460000	7593654.070000	-0.515000
245427.460000	7593649.070000	-0.511000
245427.460000	7593644.070000	-0.503000
245427.460000	7593639.070000	-0.481000
245427.460000	7593634.070000	-0.480000
245427.460000	7593629.070000	-0.447000
245427.460000	7593624.070000	-0.485000
245427.460000	7593619.070000	-0.450000
245427.460000	7593614.070000	-0.499000
245427.460000	7593609.070000	-0.576000
245427.460000	7593604.070000	-0.478000
245427.460000	7593599.070000	-0.466000
245427.460000	7593594.070000	-0.563000
245427.460000	7593589.070000	-0.551000
245427.460000	7593584.070000	-0.776000
245427.460000	7593579.070000	-1.116000
245427.460000	7593574.070000	-1.309560
245427.460000	7593569.070000	-0.437000
245427.460000	7593564.070000	-0.763000
245427.460000	7593559.070000	-0.842000
245427.460000	7593554.070000	-1.299000
245427.460000	7593549.070000	-1.136000
245427.460000	7593544.070000	-1.167000
245427.460000	7593539.070000	-1.397790
245427.460000	7593534.070000	-1.132420
245427.460000	7593529.070000	-1.401000
245427.460000	7593524.070000	-1.162000
245427.460000	7593519.070000	-1.234000
245427.460000	7593514.070000	-1.350000
245427.460000	7593509.070000	-1.429000
245427.460000	7593504.070000	-1.268000
245427.460000	7593499.070000	-1.332000
245427.460000	7593494.070000	-1.492000
245427.460000	7593489.070000	-1.682000
245427.460000	7593484.070000	-1.649000
245427.460000	7593479.070000	-1.747000
245427.460000	7593474.070000	-1.706000
245427.460000	7593469.070000	-2.005140
245427.460000	7593464.070000	-2.137000
245427.460000	7593459.070000	-2.133000
245427.460000	7593454.070000	-2.226000
245427.460000	7593449.070000	-2.211000
245427.460000	7593444.070000	-2.253000
245427.460000	7593439.070000	-2.244000
245427.460000	7593434.070000	-2.379000
245427.460000	7593429.070000	-2.542020
245427.460000	7593424.070000	-2.697000
245427.460000	7593419.070000	-2.765000
245427.460000	7593414.070000	-2.988500
245427.460000	7593409.070000	-3.197450
245427.460000	7593404.070000	-3.223000
245427.460000	7593399.070000	-3.326000
245427.460000	7593394.070000	-3.354000
245427.460000	7593389.070000	-3.056850
245427.460000	7593384.070000	-3.198000
245427.460000	7593379.070000	-3.376050
245427.460000	7593374.070000	-3.619000
245427.460000	7593369.070000	-3.736000
245427.460000	7593364.070000	-3.806470
245427.460000	7593359.070000	-3.451000
245427.460000	7593354.070000	-3.587000
245427.460000	7593349.070000	-4.196000
245427.460000	7593344.070000	-4.100000
245427.460000	7593339.070000	-4.074000
245427.460000	7593334.070000	-4.094570
245427.460000	7593329.070000	-4.142830
245427.460000	7593324.070000	-3.957000
245427.460000	7593319.070000	-4.196620
245427.460000	7593314.070000	-4.459000
245427.460000	7593309.070000	-4.516730
245427.460000	7593304.070000	-4.454000
245427.460000	7593299.070000	-4.294640
245427.460000	7593294.070000	-4.495000
245427.460000	7593289.070000	-4.631000
245427.460000	7593284.070000	-4.656760
245427.460000	7593279.070000	-4.292630
245427.460000	7593274.070000	-4.244000
245427.460000	7593269.070000	-4.040860
245427.460000	7593264.070000	-3.936000
245427.460000	7593259.070000	-4.108000
245427.460000	7593254.070000	-3.623000
245427.460000	7593249.070000	-3.584000
245427.460000	7593244.070000	-3.536000
245427.460000	7593239.070000	-3.731000
245427.460000	7593234.070000	-3.965000
245427.460000	7593229.070000	-3.981090
245427.460000	7593224.070000	-4.244000
245427.460000	7593219.070000	-4.154000
245427.460000	7593214.070000	-4.202000
245427.460000	7593209.070000	-3.887610
245427.460000	7593204.070000	-4.230970
245427.460000	7593199.070000	-4.311030
245427.460000	7593194.070000	-4.336000
245427.460000	7593189.070000	-5.027000
245427.460000	7593184.070000	-4.844060
245427.460000	7593179.070000	-4.822090
245427.460000	7593174.070000	-4.779000
245427.460000	7593169.070000	-5.017480
245427.460000	7593164.070000	-5.403340
245427.460000	7593159.070000	-5.250000
245427.460000	7593154.070000	-4.978000
245427.460000	7593149.070000	-5.212000
245427.460000	7593144.070000	-5.306630
245427.460000	7593139.070000	-5.237000
245427.460000	7593134.070000	-5.283000
245427.460000	7593129.070000	-5.355000
245427.460000	7593124.070000	-4.320110
245427.460000	7593119.070000	-4.512980
245427.460000	7593114.070000	-4.495000
245427.460000	7593109.070000	-4.353000
245427.460000	7593104.070000	-4.521000
245427.460000	7593099.070000	-4.634000
245427.460000	7593094.070000	-4.627860
245427.460000	7593089.070000	-4.613000
245427.460000	7593084.070000	-4.731000
245427.460000	7593079.070000	-4.906330
245427.460000	7593074.070000	-5.156000
245427.460000	7593069.070000	-5.108270
245427.460000	7593064.070000	-4.633860
245427.460000	7593059.070000	-4.457630
245427.460000	7593054.070000	-4.319240
245427.460000	7593049.070000	-5.000000
245427.460000	7593044.070000	-5.468090
245427.460000	7593039.070000	-4.782100
245427.460000	7593034.070000	-4.382000
245427.460000	7593029.070000	-5.067710
245427.460000	7593024.070000	-4.876000
245427.460000	7593019.070000	-5.013000
245427.460000	7593014.070000	-5.257000
245427.460000	7593009.070000	-5.215000
245427.460000	7593004.070000	-5.282000
245427.460000	7592999.070000	-5.058000
245427.460000	7592994.070000	-4.918000
245427.460000	7592989.070000	-5.582720
245427.460000	7592984.070000	-5.568240
245427.460000	7592979.070000	-5.713000
245427.460000	7592974.070000	-6.933050
245427.460000	7592969.070000	-7.382950
245427.460000	7592964.070000	-7.496000
245427.460000	7592959.070000	-7.862880
245427.460000	7592954.070000	-8.017110
245427.460000	7592949.070000	-8.056880
245427.460000	7592944.070000	-8.144000
245427.460000	7592939.070000	-8.244000
245427.460000	7592934.070000	-8.392000
245427.460000	7592929.070000	-8.569620
245427.460000	7592924.070000	-8.753230
245427.460000	7592919.070000	-8.814000
245427.460000	7592914.070000	-9.160690
245427.460000	7592909.070000	-9.243320
245427.460000	7592904.070000	-9.577680
245427.460000	7592899.070000	-9.881660
245427.460000	7592894.070000	-9.962460
245427.460000	7592889.070000	-10.156020
245432.460000	7594659.070000	-8.716310
245432.460000	7594654.070000	-8.857490
245432.460000	7594649.070000	-7.020070
245432.460000	7594644.070000	-7.010130
245432.460000	7594639.070000	-5.195400
245432.460000	7594634.070000	-5.784000
245432.460000	7594629.070000	-7.815380
245432.460000	7594624.070000	-7.745440
245432.460000	7594619.070000	-7.450120
245432.460000	7594614.070000	-7.255980
245432.460000	7594609.070000	-6.994510
245432.460000	7594604.070000	-6.220000
245432.460000	7594599.070000	-6.406000
245432.460000	7594594.070000	-4.885000
245432.460000	7594589.070000	-5.626810
245432.460000	7594584.070000	-4.614000
245432.460000	7594579.070000	-5.429990
245432.460000	7594574.070000	-5.560000
245432.460000	7594569.070000	-4.998000
245432.460000	7594564.070000	-5.077000
245432.460000	7594559.070000	-4.607000
245432.460000	7594554.070000	-4.616110
245432.460000	7594549.070000	-4.311000
245432.460000	7594544.070000	-4.374000
245432.460000	7594539.070000	-3.996000
245432.460000	7594534.070000	-3.921910
245432.460000	7594529.070000	-3.932000
245432.460000	7594524.070000	-3.642000
245432.460000	7594519.070000	-3.511480
245432.460000	7594514.070000	-3.611000
245432.460000	7594509.070000	-3.247000
245432.460000	7594504.070000	-3.304000
245432.460000	7594499.070000	-3.202000
245432.460000	7594494.070000	-2.751000
245432.460000	7594489.070000	-2.668000
245432.460000	7594484.070000	-2.373000
245432.460000	7594479.070000	-2.138000
245432.460000	7594474.070000	-2.321000
245432.460000	7594469.070000	-2.435000
245432.460000	7594464.070000	-2.072000
245432.460000	7594459.070000	-1.737000
245432.460000	7594454.070000	-1.885380
245432.460000	7594449.070000	-2.167000
245432.460000	7594444.070000	-2.066000
245432.460000	7594439.070000	-1.403900
245432.460000	7594434.070000	-1.775630
245432.460000	7594429.070000	-1.784160
245432.460000	7594424.070000	-1.659260
245432.460000	7594419.070000	-1.724000
245432.460000	7594414.070000	-1.728000
245432.460000	7594409.070000	-1.590000
245432.460000	7594404.070000	-1.395000
245432.460000	7594399.070000	-1.439000
245432.460000	7594394.070000	-1.612000
245432.460000	7594389.070000	-1.585970
245432.460000	7594384.070000	-1.603000
245432.460000	7594379.070000	-1.601000
245432.460000	7594374.070000	-1.580000
245432.460000	7594369.070000	-1.804000
245432.460000	7594364.070000	-1.699000
245432.460000	7594359.070000	-1.716000
245432.460000	7594354.070000	-1.657000
245432.460000	7594349.070000	-1.811000
245432.460000	7594344.070000	-1.624000
245432.460000	7594339.070000	-1.701000
245432.460000	7594334.070000	-1.400670
245432.460000	7594329.070000	-1.048000
245432.460000	7594324.070000	-1.190000
245432.460000	7594319.070000	-0.926000
245432.460000	7594314.070000	-1.100000
245432.460000	7594309.070000	-1.199000
245432.460000	7594304.070000	-1.166000
245432.460000	7594299.070000	-1.096000
245432.460000	7594294.070000	-1.322570
245432.460000	7594289.070000	-1.490000
245432.460000	7594284.070000	-1.450000
245432.460000	7594279.070000	-1.099000
245432.460000	7594274.070000	-1.241000
245432.460000	7594269.070000	-1.121000
245432.460000	7594264.070000	-1.464350
245432.460000	7594259.070000	-1.745000
245432.460000	7594254.070000	-1.465000
245432.460000	7594249.070000	-1.514000
245432.460000	7594244.070000	-1.308060
245432.460000	7594239.070000	-1.268690
245432.460000	7594234.070000	-1.409300
245432.460000	7594229.070000	-1.668000
245432.460000	7594224.070000	-1.746000
245432.460000	7594219.070000	-1.766000
245432.460000	7594214.070000	-1.496000
245432.460000	7594209.070000	-1.425000
245432.460000	7594204.070000	-1.415300
245432.460000	7594199.070000	-1.100000
245432.460000	7594194.070000	-1.036000
245432.460000	7594189.070000	-0.949000
245432.460000	7594184.070000	-1.169000
245432.460000	7594179.070000	-1.131000
245432.460000	7594174.070000	-1.112000
245432.460000	7594169.070000	-0.990000
245432.460000	7594164.070000	-1.075000
245432.460000	7594159.070000	-0.767500
245432.460000	7594154.070000	-0.738000
245432.460000	7594149.070000	-0.795000
245432.460000	7594144.070000	-1.088000
245432.460000	7594139.070000	-0.960000
245432.460000	7594134.070000	-0.971000
245432.460000	7594129.070000	-0.868000
245432.460000	7594124.070000	-0.998000
245432.460000	7594119.070000	-1.057000
245432.460000	7594114.070000	-1.144000
245432.460000	7594109.070000	-1.189650
245432.460000	7594104.070000	-1.109000
245432.460000	7594099.070000	-1.200000
245432.460000	7594094.070000	-1.123000
245432.460000	7594089.070000	-1.053000
245432.460000	7594084.070000	-1.125000
245432.460000	7594079.070000	-1.204380
245432.460000	7594074.070000	-1.220000
245432.460000	7594069.070000	-1.190000
245432.460000	7594064.070000	-1.274000
245432.460000	7594059.070000	-1.210000
245432.460000	7594054.070000	-1.075000
245432.460000	7594049.070000	-1.109000
245432.460000	7594044.070000	-1.102000
245432.460000	7594039.070000	-0.995000
245432.460000	7594034.070000	-1.033000
245432.460000	7594029.070000	-0.924000
245432.460000	7594024.070000	-0.912000
245432.460000	7594019.070000	-0.872000
245432.460000	7594014.070000	-0.814000
245432.460000	7594009.070000	-0.911000
245432.460000	7594004.070000	-0.903000
245432.460000	7593999.070000	-0.920000
245432.460000	7593994.070000	-0.856000
245432.460000	7593989.070000	-0.840330
245432.460000	7593984.070000	-0.768000
245432.460000	7593979.070000	-0.783000
245432.460000	7593974.070000	-0.749000
245432.460000	7593969.070000	-0.693000
245432.460000	7593964.070000	-0.728000
245432.460000	7593959.070000	-0.757000
245432.460000	7593954.070000	-0.805000
245432.460000	7593949.070000	-0.732000
245432.460000	7593944.070000	-0.805600
245432.460000	7593939.070000	-0.829000
245432.460000	7593934.070000	-0.699000
245432.460000	7593929.070000	-0.706000
245432.460000	7593924.070000	-0.764000
245432.460000	7593919.070000	-0.822270
245432.460000	7593914.070000	-0.691000
245432.460000	7593909.070000	-0.814000
245432.460000	7593904.070000	-0.776000
245432.460000	7593899.070000	-0.787000
245432.460000	7593894.070000	-0.773000
245432.460000	7593889.070000	-0.764000
245432.460000	7593884.070000	-0.798000
245432.460000	7593879.070000	-0.868000
245432.460000	7593874.070000	-0.930000
245432.460000	7593869.070000	-0.899000
245432.460000	7593864.070000	-0.935000
245432.460000	7593859.070000	-0.923000
245432.460000	7593854.070000	-0.986000
245432.460000	7593849.070000	-0.921000
245432.460000	7593844.070000	-0.966390
245432.460000	7593839.070000	-0.996000
245432.460000	7593834.070000	-0.969000
245432.460000	7593829.070000	-0.946000
245432.460000	7593824.070000	-0.895000
245432.460000	7593819.070000	-0.939000
245432.460000	7593814.070000	-0.864000
245432.460000	7593809.070000	-0.930000
245432.460000	7593804.070000	-1.002000
245432.460000	7593799.070000	-1.053710
245432.460000	7593794.070000	-0.938000
245432.460000	7593789.070000	-1.051000
245432.460000	7593784.070000	-1.102000
245432.460000	7593779.070000	-1.019000
245432.460000	7593774.070000	-1.023000
245432.460000	7593769.070000	-1.020000
245432.460000	7593764.070000	-1.028000
245432.460000	7593759.070000	-1.004000
245432.460000	7593754.070000	-0.997000
245432.460000	7593749.070000	-1.063000
245432.460000	7593744.070000	-1.057000
245432.460000	7593739.070000	-1.051000
245432.460000	7593734.070000	-0.916000
245432.460000	7593729.070000	-0.999000
245432.460000	7593724.070000	-0.947000
245432.460000	7593719.070000	-0.852290
245432.460000	7593714.070000	-0.898000
245432.460000	7593709.070000	-0.780000
245432.460000	7593704.070000	-0.762000
245432.460000	7593699.070000	-0.641000
245432.460000	7593694.070000	-0.672570
245432.460000	7593689.070000	-0.579000
245432.460000	7593684.070000	-0.542000
245432.460000	7593679.070000	-0.537000
245432.460000	7593674.070000	-0.560000
245432.460000	7593669.070000	-0.567000
245432.460000	7593664.070000	-0.671000
245432.460000	7593659.070000	-0.638000
245432.460000	7593654.070000	-0.531000
245432.460000	7593649.070000	-0.515000
245432.460000	7593644.070000	-0.567320
245432.460000	7593639.070000	-0.543000
245432.460000	7593634.070000	-0.477000
245432.460000	7593629.070000	-0.472500
245432.460000	7593624.070000	-0.473000
245432.460000	7593619.070000	-0.471000
245432.460000	7593614.070000	-0.456000
245432.460000	7593609.070000	-0.481000
245432.460000	7593604.070000	-0.496000
245432.460000	7593599.070000	-0.530660
245432.460000	7593594.070000	-0.457000
245432.460000	7593589.070000	-0.497000
245432.460000	7593584.070000	-0.435000
245432.460000	7593579.070000	-0.742000
245432.460000	7593574.070000	-1.203590
245432.460000	7593569.070000	-1.209000
245432.460000	7593564.070000	-0.872000
245432.460000	7593559.070000	-0.548000
245432.460000	7593554.070000	-0.637000
245432.460000	7593549.070000	-0.849000
245432.460000	7593544.070000	-1.066000
245432.460000	7593539.070000	-1.460400
245432.460000	7593534.070000	-1.308000
245432.460000	7593529.070000	-1.168000
245432.460000	7593524.070000	-1.282000
245432.460000	7593519.070000	-1.258000
245432.460000	7593514.070000	-1.245000
245432.460000	7593509.070000	-1.286000
245432.460000	7593504.070000	-1.185000
245432.460000	7593499.070000	-1.397000
245432.460000	7593494.070000	-1.404000
245432.460000	7593489.070000	-1.514500
245432.460000	7593484.070000	-1.681000
245432.460000	7593479.070000	-1.997320
245432.460000	7593474.070000	-1.872000
245432.460000	7593469.070000	-2.041000
245432.460000	7593464.070000	-2.005000
245432.460000	7593459.070000	-2.224900
245432.460000	7593454.070000	-1.994000
245432.460000	7593449.070000	-1.912000
245432.460000	7593444.070000	-2.249000
245432.460000	7593439.070000	-2.520000
245432.460000	7593434.070000	-2.525000
245432.460000	7593429.070000	-2.745000
245432.460000	7593424.070000	-2.760000
245432.460000	7593419.070000	-2.734000
245432.460000	7593414.070000	-2.834000
245432.460000	7593409.070000	-2.993000
245432.460000	7593404.070000	-3.127000
245432.460000	7593399.070000	-3.231820
245432.460000	7593394.070000	-3.148000
245432.460000	7593389.070000	-3.241000
245432.460000	7593384.070000	-3.246000
245432.460000	7593379.070000	-3.739000
245432.460000	7593374.070000	-3.449000
245432.460000	7593369.070000	-3.696000
245432.460000	7593364.070000	-3.951730
245432.460000	7593359.070000	-3.672000
245432.460000	7593354.070000	-3.754000
245432.460000	7593349.070000	-4.084000
245432.460000	7593344.070000	-3.813000
245432.460000	7593339.070000	-4.234000
245432.460000	7593334.070000	-4.157000
245432.460000	7593329.070000	-4.354000
245432.460000	7593324.070000	-4.309790
245432.460000	7593319.070000	-4.207000
245432.460000	7593314.070000	-4.037000
245432.460000	7593309.070000	-4.416000
245432.460000	7593304.070000	-4.473000
245432.460000	7593299.070000	-4.265000
245432.460000	7593294.070000	-4.416000
245432.460000	7593289.070000	-4.482000
245432.460000	7593284.070000	-4.567030
245432.460000	7593279.070000	-4.545000
245432.460000	7593274.070000	-4.340000
245432.460000	7593269.070000	-4.314000
245432.460000	7593264.070000	-4.391040
245432.460000	7593259.070000	-3.976530
245432.460000	7593254.070000	-3.899310
245432.460000	7593249.070000	-3.985560
245432.460000	7593244.070000	-3.699840
245432.460000	7593239.070000	-3.741000
245432.460000	7593234.070000	-4.029810
245432.460000	7593229.070000	-4.140000
245432.460000	7593224.070000	-4.158000
245432.460000	7593219.070000	-4.440000
245432.460000	7593214.070000	-4.068000
245432.460000	7593209.070000	-4.002000
245432.460000	7593204.070000	-4.210000
245432.460000	7593199.070000	-4.307000
245432.460000	7593194.070000	-5.006280
245432.460000	7593189.070000	-4.592000
245432.460000	7593184.070000	-4.875000
245432.460000	7593179.070000	-5.151000
245432.460000	7593174.070000	-5.622000
245432.460000	7593169.070000	-5.490000
245432.460000	7593164.070000	-5.317980
245432.460000	7593159.070000	-4.965000
245432.460000	7593154.070000	-4.927000
245432.460000	7593149.070000	-5.216000
245432.460000	7593144.070000	-5.138000
245432.460000	7593139.070000	-5.273000
245432.460000	7593134.070000	-5.323000
245432.460000	7593129.070000	-5.305000
245432.460000	7593124.070000	-5.365990
245432.460000	7593119.070000	-4.503110
245432.460000	7593114.070000	-4.612820
245432.460000	7593109.070000	-4.554570
245432.460000	7593104.070000	-4.524530
245432.460000	7593099.070000	-4.535000
245432.460000	7593094.070000	-4.614640
245432.460000	7593089.070000	-4.693000
245432.460000	7593084.070000	-4.874000
245432.460000	7593079.070000	-5.106000
245432.460000	7593074.070000	-4.949000
245432.460000	7593069.070000	-5.185000
245432.460000	7593064.070000	-4.634060
245432.460000	7593059.070000	-4.323530
245432.460000	7593054.070000	-4.407470
245432.460000	7593049.070000	-5.137000
245432.460000	7593044.070000	-5.675140
245432.460000	7593039.070000	-5.008000
245432.460000	7593034.070000	-5.216460
245432.460000	7593029.070000	-5.021000
245432.460000	7593024.070000	-4.641000
245432.460000	7593019.070000	-4.768000
245432.460000	7593014.070000	-4.853000
245432.460000	7593009.070000	-5.018100
245432.460000	7593004.070000	-4.907430
245432.460000	7592999.070000	-4.821000
245432.460000	7592994.070000	-5.082000
245432.460000	7592989.070000	-5.387000
245432.460000	7592984.070000	-5.659190
245432.460000	7592979.070000	-6.235000
245432.460000	7592974.070000	-7.024510
245432.460000	7592969.070000	-7.281600
245432.460000	7592964.070000	-7.289650
245432.460000	7592959.070000	-7.678000
245432.460000	7592954.070000	-7.747090
245432.460000	7592949.070000	-8.003000
245432.460000	7592944.070000	-8.134000
245432.460000	7592939.070000	-8.426000
245432.460000	7592934.070000	-8.484220
245432.460000	7592929.070000	-8.592000
245432.460000	7592924.070000	-8.603050
245432.460000	7592919.070000	-9.017010
245432.460000	7592914.070000	-9.067160
245432.460000	7592909.070000	-9.342570
245432.460000	7592904.070000	-9.672600
245432.460000	7592899.070000	-9.655360
245432.460000	7592894.070000	-9.938840
245437.460000	7594659.070000	-9.065870
245437.460000	7594654.070000	-9.088550
245437.460000	7594649.070000	-8.160930
245437.460000	7594644.070000	-7.921000
245437.460000	7594639.070000	-7.918960
245437.460000	7594634.070000	-7.975450
245437.460000	7594629.070000	-7.949390
245437.460000	7594624.070000	-7.554000
245437.460000	7594619.070000	-7.418000
245437.460000	7594614.070000	-7.209000
245437.460000	7594609.070000	-6.554000
245437.460000	7594604.070000	-6.561870
245437.460000	7594599.070000	-6.365470
245437.460000	7594594.070000	-5.500050
245437.460000	7594589.070000	-5.706000
245437.460000	7594584.070000	-4.438000
245437.460000	7594579.070000	-5.534200
245437.460000	7594574.070000	-5.315260
245437.460000	7594569.070000	-4.850000
245437.460000	7594564.070000	-4.522000
245437.460000	7594559.070000	-4.485000
245437.460000	7594554.070000	-4.533030
245437.460000	7594549.070000	-4.286000
245437.460000	7594544.070000	-3.964000
245437.460000	7594539.070000	-3.862410
245437.460000	7594534.070000	-3.601000
245437.460000	7594529.070000	-3.536770
245437.460000	7594524.070000	-3.442000
245437.460000	7594519.070000	-3.349000
245437.460000	7594514.070000	-3.280000
245437.460000	7594509.070000	-3.159000
245437.460000	7594504.070000	-2.846800
245437.460000	7594499.070000	-2.804390
245437.460000	7594494.070000	-2.683000
245437.460000	7594489.070000	-2.488000
245437.460000	7594484.070000	-2.177000
245437.460000	7594479.070000	-2.344000
245437.460000	7594474.070000	-2.391340
245437.460000	7594469.070000	-2.010000
245437.460000	7594464.070000	-2.250280
245437.460000	7594459.070000	-2.076000
245437.460000	7594454.070000	-2.134000
245437.460000	7594449.070000	-2.087620
245437.460000	7594444.070000	-1.931000
245437.460000	7594439.070000	-1.707000
245437.460000	7594434.070000	-1.614670
245437.460000	7594429.070000	-1.650000
245437.460000	7594424.070000	-1.565440
245437.460000	7594419.070000	-1.534660
245437.460000	7594414.070000	-1.626690
245437.460000	7594409.070000	-1.590000
245437.460000	7594404.070000	-1.550000
245437.460000	7594399.070000	-1.585000
245437.460000	7594394.070000	-1.693000
245437.460000	7594389.070000	-1.762890
245437.460000	7594384.070000	-1.717000
245437.460000	7594379.070000	-1.775000
245437.460000	7594374.070000	-1.863000
245437.460000	7594369.070000	-1.886130
245437.460000	7594364.070000	-1.841000
245437.460000	7594359.070000	-1.657000
245437.460000	7594354.070000	-1.904000
245437.460000	7594349.070000	-1.952000
245437.460000	7594344.070000	-1.942000
245437.460000	7594339.070000	-1.786160
245437.460000	7594334.070000	-1.411000
245437.460000	7594329.070000	-1.292000
245437.460000	7594324.070000	-1.586000
245437.460000	7594319.070000	-1.136630
245437.460000	7594314.070000	-1.532060
245437.460000	7594309.070000	-1.112000
245437.460000	7594304.070000	-0.959000
245437.460000	7594299.070000	-1.159000
245437.460000	7594294.070000	-1.527000
245437.460000	7594289.070000	-1.516000
245437.460000	7594284.070000	-1.340000
245437.460000	7594279.070000	-1.564000
245437.460000	7594274.070000	-1.492000
245437.460000	7594269.070000	-1.557150
245437.460000	7594264.070000	-1.383270
245437.460000	7594259.070000	-1.633000
245437.460000	7594254.070000	-1.180000
245437.460000	7594249.070000	-1.167000
245437.460000	7594244.070000	-1.643000
245437.460000	7594239.070000	-1.274000
245437.460000	7594234.070000	-1.259000
245437.460000	7594229.070000	-1.613340
245437.460000	7594224.070000	-1.702000
245437.460000	7594219.070000	-1.717000
245437.460000	7594214.070000	-1.613000
245437.460000	7594209.070000	-1.160000
245437.460000	7594204.070000	-0.932000
245437.460000	7594199.070000	-1.123000
245437.460000	7594194.070000	-1.154000
245437.460000	7594189.070000	-0.940000
245437.460000	7594184.070000	-1.365000
245437.460000	7594179.070000	-1.324000
245437.460000	7594174.070000	-0.850570
245437.460000	7594169.070000	-0.941000
245437.460000	7594164.070000	-0.800000
245437.460000	7594159.070000	-0.762000
245437.460000	7594154.070000	-0.794000
245437.460000	7594149.070000	-0.905430
245437.460000	7594144.070000	-1.092000
245437.460000	7594139.070000	-0.975000
245437.460000	7594134.070000	-1.209470
245437.460000	7594129.070000	-1.173000
245437.460000	7594124.070000	-1.037000
245437.460000	7594119.070000	-1.142000
245437.460000	7594114.070000	-1.117000
245437.460000	7594109.070000	-1.123000
245437.460000	7594104.070000	-1.169000
245437.460000	7594099.070000	-1.086000
245437.460000	7594094.070000	-1.142000
245437.460000	7594089.070000	-1.103000
245437.460000	7594084.070000	-1.124000
245437.460000	7594079.070000	-1.076000
245437.460000	7594074.070000	-1.214000
245437.460000	7594069.070000	-1.235000
245437.460000	7594064.070000	-1.211000
245437.460000	7594059.070000	-1.260000
245437.460000	7594054.070000	-1.201000
245437.460000	7594049.070000	-1.066000
245437.460000	7594044.070000	-1.066000
245437.460000	7594039.070000	-1.070000
245437.460000	7594034.070000	-0.931000
245437.460000	7594029.070000	-0.823000
245437.460000	7594024.070000	-0.813000
245437.460000	7594019.070000	-0.786000
245437.460000	7594014.070000	-0.863000
245437.460000	7594009.070000	-0.887000
245437.460000	7594004.070000	-0.857770
245437.460000	7593999.070000	-0.791000
245437.460000	7593994.070000	-0.790000
245437.460000	7593989.070000	-0.760000
245437.460000	7593984.070000	-0.832000
245437.460000	7593979.070000	-0.813000
245437.460000	7593974.070000	-0.757640
245437.460000	7593969.070000	-0.634000
245437.460000	7593964.070000	-0.768000
245437.460000	7593959.070000	-0.637000
245437.460000	7593954.070000	-0.648000
245437.460000	7593949.070000	-0.611000
245437.460000	7593944.070000	-0.714000
245437.460000	7593939.070000	-0.712000
245437.460000	7593934.070000	-0.690500
245437.460000	7593929.070000	-0.738000
245437.460000	7593924.070000	-0.700000
245437.460000	7593919.070000	-0.702000
245437.460000	7593914.070000	-0.695810
245437.460000	7593909.070000	-0.733000
245437.460000	7593904.070000	-0.745000
245437.460000	7593899.070000	-0.705000
245437.460000	7593894.070000	-0.706000
245437.460000	7593889.070000	-0.804000
245437.460000	7593884.070000	-0.756000
245437.460000	7593879.070000	-0.841290
245437.460000	7593874.070000	-0.866000
245437.460000	7593869.070000	-0.903000
245437.460000	7593864.070000	-0.937100
245437.460000	7593859.070000	-0.917000
245437.460000	7593854.070000	-0.875000
245437.460000	7593849.070000	-0.849500
245437.460000	7593844.070000	-0.885000
245437.460000	7593839.070000	-0.822000
245437.460000	7593834.070000	-0.847000
245437.460000	7593829.070000	-1.010000
245437.460000	7593824.070000	-0.867000
245437.460000	7593819.070000	-0.925000
245437.460000	7593814.070000	-0.933000
245437.460000	7593809.070000	-0.890850
245437.460000	7593804.070000	-0.860000
245437.460000	7593799.070000	-0.823000
245437.460000	7593794.070000	-0.893000
245437.460000	7593789.070000	-0.970000
245437.460000	7593784.070000	-0.965000
245437.460000	7593779.070000	-0.982000
245437.460000	7593774.070000	-1.052430
245437.460000	7593769.070000	-1.022000
245437.460000	7593764.070000	-0.950000
245437.460000	7593759.070000	-0.969000
245437.460000	7593754.070000	-1.039000
245437.460000	7593749.070000	-1.029000
245437.460000	7593744.070000	-1.018000
245437.460000	7593739.070000	-1.036000
245437.460000	7593734.070000	-1.028000
245437.460000	7593729.070000	-0.889000
245437.460000	7593724.070000	-0.996000
245437.460000	7593719.070000	-0.904000
245437.460000	7593714.070000	-0.928000
245437.460000	7593709.070000	-0.885000
245437.460000	7593704.070000	-0.908120
245437.460000	7593699.070000	-0.754000
245437.460000	7593694.070000	-0.784000
245437.460000	7593689.070000	-0.697000
245437.460000	7593684.070000	-0.636000
245437.460000	7593679.070000	-0.591000
245437.460000	7593674.070000	-0.603000
245437.460000	7593669.070000	-0.574000
245437.460000	7593664.070000	-0.609000
245437.460000	7593659.070000	-0.687000
245437.460000	7593654.070000	-0.638000
245437.460000	7593649.070000	-0.632000
245437.460000	7593644.070000	-0.645000
245437.460000	7593639.070000	-0.590000
245437.460000	7593634.070000	-0.602000
245437.460000	7593629.070000	-0.568000
245437.460000	7593624.070000	-0.581000
245437.460000	7593619.070000	-0.557000
245437.460000	7593614.070000	-0.522000
245437.460000	7593609.070000	-0.534000
245437.460000	7593604.070000	-0.508000
245437.460000	7593599.070000	-0.518190
245437.460000	7593594.070000	-0.440000
245437.460000	7593589.070000	-0.424000
245437.460000	7593584.070000	-0.667000
245437.460000	7593579.070000	-0.828090
245437.460000	7593574.070000	-0.879000
245437.460000	7593569.070000	-1.158000
245437.460000	7593564.070000	-0.894000
245437.460000	7593559.070000	-0.779000
245437.460000	7593554.070000	-0.731000
245437.460000	7593549.070000	-0.803900
245437.460000	7593544.070000	-1.044670
245437.460000	7593539.070000	-1.196000
245437.460000	7593534.070000	-1.476000
245437.460000	7593529.070000	-1.225880
245437.460000	7593524.070000	-1.229000
245437.460000	7593519.070000	-1.159000
245437.460000	7593514.070000	-1.151000
245437.460000	7593509.070000	-1.216000
245437.460000	7593504.070000	-1.438000
245437.460000	7593499.070000	-1.250000
245437.460000	7593494.070000	-1.566000
245437.460000	7593489.070000	-1.252000
245437.460000	7593484.070000	-1.519030
245437.460000	7593479.070000	-1.406000
245437.460000	7593474.070000	-2.005000
245437.460000	7593469.070000	-2.069000
245437.460000	7593464.070000	-2.005180
245437.460000	7593459.070000	-2.099000
245437.460000	7593454.070000	-2.177000
245437.460000	7593449.070000	-2.104000
245437.460000	7593444.070000	-2.247000
245437.460000	7593439.070000	-2.300000
245437.460000	7593434.070000	-2.375000
245437.460000	7593429.070000	-2.650000
245437.460000	7593424.070000	-2.758000
245437.460000	7593419.070000	-2.859000
245437.460000	7593414.070000	-2.827000
245437.460000	7593409.070000	-2.782630
245437.460000	7593404.070000	-2.961250
245437.460000	7593399.070000	-2.847000
245437.460000	7593394.070000	-3.096000
245437.460000	7593389.070000	-3.197310
245437.460000	7593384.070000	-3.241000
245437.460000	7593379.070000	-3.529000
245437.460000	7593374.070000	-3.756600
245437.460000	7593369.070000	-3.665000
245437.460000	7593364.070000	-3.868000
245437.460000	7593359.070000	-3.829000
245437.460000	7593354.070000	-3.967000
245437.460000	7593349.070000	-4.020000
245437.460000	7593344.070000	-4.352000
245437.460000	7593339.070000	-4.179000
245437.460000	7593334.070000	-4.340000
245437.460000	7593329.070000	-4.397780
245437.460000	7593324.070000	-4.460000
245437.460000	7593319.070000	-4.561000
245437.460000	7593314.070000	-4.535000
245437.460000	7593309.070000	-4.413000
245437.460000	7593304.070000	-4.363880
245437.460000	7593299.070000	-4.347000
245437.460000	7593294.070000	-4.377380
245437.460000	7593289.070000	-4.281000
245437.460000	7593284.070000	-4.570000
245437.460000	7593279.070000	-4.994000
245437.460000	7593274.070000	-4.773430
245437.460000	7593269.070000	-4.558000
245437.460000	7593264.070000	-4.509030
245437.460000	7593259.070000	-4.520810
245437.460000	7593254.070000	-4.162320
245437.460000	7593249.070000	-3.929000
245437.460000	7593244.070000	-4.488000
245437.460000	7593239.070000	-4.643000
245437.460000	7593234.070000	-4.051000
245437.460000	7593229.070000	-4.283000
245437.460000	7593224.070000	-4.609000
245437.460000	7593219.070000	-4.393000
245437.460000	7593214.070000	-4.490000
245437.460000	7593209.070000	-4.746800
245437.460000	7593204.070000	-4.413000
245437.460000	7593199.070000	-4.672000
245437.460000	7593194.070000	-4.738000
245437.460000	7593189.070000	-5.336690
245437.460000	7593184.070000	-5.482000
245437.460000	7593179.070000	-5.523400
245437.460000	7593174.070000	-5.583000
245437.460000	7593169.070000	-4.815000
245437.460000	7593164.070000	-4.996000
245437.460000	7593159.070000	-5.107000
245437.460000	7593154.070000	-5.076000
245437.460000	7593149.070000	-4.674000
245437.460000	7593144.070000	-4.922000
245437.460000	7593139.070000	-5.310000
245437.460000	7593134.070000	-5.021000
245437.460000	7593129.070000	-5.443190
245437.460000	7593124.070000	-5.603020
245437.460000	7593119.070000	-5.087000
245437.460000	7593114.070000	-5.290740
245437.460000	7593109.070000	-5.461000
245437.460000	7593104.070000	-5.321570
245437.460000	7593099.070000	-4.888030
245437.460000	7593094.070000	-4.754000
245437.460000	7593089.070000	-4.707000
245437.460000	7593084.070000	-4.876000
245437.460000	7593079.070000	-5.502000
245437.460000	7593074.070000	-4.806000
245437.460000	7593069.070000	-5.272150
245437.460000	7593064.070000	-4.551000
245437.460000	7593059.070000	-4.466000
245437.460000	7593054.070000	-4.456000
245437.460000	7593049.070000	-4.923660
245437.460000	7593044.070000	-5.471020
245437.460000	7593039.070000	-4.771850
245437.460000	7593034.070000	-5.089600
245437.460000	7593029.070000	-4.736880
245437.460000	7593024.070000	-4.725000
245437.460000	7593019.070000	-4.502000
245437.460000	7593014.070000	-4.520000
245437.460000	7593009.070000	-4.879090
245437.460000	7593004.070000	-5.230830
245437.460000	7592999.070000	-5.113000
245437.460000	7592994.070000	-5.479000
245437.460000	7592989.070000	-5.672000
245437.460000	7592984.070000	-5.642000
245437.460000	7592979.070000	-6.410000
245437.460000	7592974.070000	-6.845000
245437.460000	7592969.070000	-7.255000
245437.460000	7592964.070000	-7.537020
245437.460000	7592959.070000	-7.358000
245437.460000	7592954.070000	-7.642000
245437.460000	7592949.070000	-7.779000
245437.460000	7592944.070000	-8.106000
245437.460000	7592939.070000	-8.371370
245437.460000	7592934.070000	-8.460030
245437.460000	7592929.070000	-8.657870
245437.460000	7592924.070000	-8.692490
245437.460000	7592919.070000	-8.847540
245437.460000	7592914.070000	-8.841650
245437.460000	7592909.070000	-9.147670
245437.460000	7592904.070000	-9.544840
245437.460000	7592899.070000	-9.853620
245437.460000	7592894.070000	-9.964510
245442.460000	7594659.070000	-8.987630
245442.460000	7594654.070000	-8.744910
245442.460000	7594649.070000	-7.827000
245442.460000	7594644.070000	-8.198120
245442.460000	7594639.070000	-7.719390
245442.460000	7594634.070000	-7.678770
245442.460000	7594629.070000	-7.434920
245442.460000	7594624.070000	-6.863000
245442.460000	7594619.070000	-6.806460
245442.460000	7594614.070000	-6.956000
245442.460000	7594609.070000	-6.563030
245442.460000	7594604.070000	-5.742480
245442.460000	7594599.070000	-5.709000
245442.460000	7594594.070000	-5.430000
245442.460000	7594589.070000	-4.364420
245442.460000	7594584.070000	-5.267340
245442.460000	7594579.070000	-4.982000
245442.460000	7594574.070000	-5.316180
245442.460000	7594569.070000	-5.318000
245442.460000	7594564.070000	-4.660000
245442.460000	7594559.070000	-4.429640
245442.460000	7594554.070000	-4.515000
245442.460000	7594549.070000	-4.159000
245442.460000	7594544.070000	-4.007320
245442.460000	7594539.070000	-3.966740
245442.460000	7594534.070000	-3.634000
245442.460000	7594529.070000	-3.514000
245442.460000	7594524.070000	-3.416750
245442.460000	7594519.070000	-3.256000
245442.460000	7594514.070000	-3.082000
245442.460000	7594509.070000	-2.897480
245442.460000	7594504.070000	-2.631000
245442.460000	7594499.070000	-2.627240
245442.460000	7594494.070000	-2.550000
245442.460000	7594489.070000	-2.593000
245442.460000	7594484.070000	-2.328000
245442.460000	7594479.070000	-2.366960
245442.460000	7594474.070000	-2.084000
245442.460000	7594469.070000	-1.907000
245442.460000	7594464.070000	-2.130760
245442.460000	7594459.070000	-2.083370
245442.460000	7594454.070000	-2.021520
245442.460000	7594449.070000	-1.924920
245442.460000	7594444.070000	-1.729000
245442.460000	7594439.070000	-1.752000
245442.460000	7594434.070000	-1.503000
245442.460000	7594429.070000	-1.652710
245442.460000	7594424.070000	-1.669000
245442.460000	7594419.070000	-1.572000
245442.460000	7594414.070000	-1.432000
245442.460000	7594409.070000	-1.571000
245442.460000	7594404.070000	-1.352000
245442.460000	7594399.070000	-1.349000
245442.460000	7594394.070000	-1.632000
245442.460000	7594389.070000	-1.757580
245442.460000	7594384.070000	-1.622000
245442.460000	7594379.070000	-1.864530
245442.460000	7594374.070000	-1.834220
245442.460000	7594369.070000	-1.455580
245442.460000	7594364.070000	-1.495410
245442.460000	7594359.070000	-1.769000
245442.460000	7594354.070000	-1.818890
245442.460000	7594349.070000	-1.765000
245442.460000	7594344.070000	-1.853000
245442.460000	7594339.070000	-1.713000
245442.460000	7594334.070000	-1.133000
245442.460000	7594329.070000	-1.212000
245442.460000	7594324.070000	-1.158000
245442.460000	7594319.070000	-1.342000
245442.460000	7594314.070000	-1.514000
245442.460000	7594309.070000	-1.323000
245442.460000	7594304.070000	-1.495110
245442.460000	7594299.070000	-1.317660
245442.460000	7594294.070000	-1.481000
245442.460000	7594289.070000	-1.412000
245442.460000	7594284.070000	-1.268770
245442.460000	7594279.070000	-1.508000
245442.460000	7594274.070000	-1.564000
245442.460000	7594269.070000	-1.682000
245442.460000	7594264.070000	-1.600000
245442.460000	7594259.070000	-1.341410
245442.460000	7594254.070000	-1.123000
245442.460000	7594249.070000	-1.389000
245442.460000	7594244.070000	-1.188670
245442.460000	7594239.070000	-1.093000
245442.460000	7594234.070000	-1.210000
245442.460000	7594229.070000	-1.191000
245442.460000	7594224.070000	-1.203000
245442.460000	7594219.070000	-1.629000
245442.460000	7594214.070000	-1.332000
245442.460000	7594209.070000	-1.233000
245442.460000	7594204.070000	-1.255000
245442.460000	7594199.070000	-1.687000
245442.460000	7594194.070000	-1.464780
245442.460000	7594189.070000	-1.210000
245442.460000	7594184.070000	-1.038000
245442.460000	7594179.070000	-0.771000
245442.460000	7594174.070000	-0.657000
245442.460000	7594169.070000	-0.777000
245442.460000	7594164.070000	-0.717000
245442.460000	7594159.070000	-0.821000
245442.460000	7594154.070000	-1.004210
245442.460000	7594149.070000	-1.083000
245442.460000	7594144.070000	-1.110000
245442.460000	7594139.070000	-1.119410
245442.460000	7594134.070000	-1.039000
245442.460000	7594129.070000	-1.078000
245442.460000	7594124.070000	-1.039000
245442.460000	7594119.070000	-1.081000
245442.460000	7594114.070000	-1.083000
245442.460000	7594109.070000	-1.113000
245442.460000	7594104.070000	-1.066000
245442.460000	7594099.070000	-1.103760
245442.460000	7594094.070000	-1.100000
245442.460000	7594089.070000	-1.047000
245442.460000	7594084.070000	-0.955000
245442.460000	7594079.070000	-0.987000
245442.460000	7594074.070000	-1.068000
245442.460000	7594069.070000	-1.083000
245442.460000	7594064.070000	-1.068000
245442.460000	7594059.070000	-1.081000
245442.460000	7594054.070000	-1.038000
245442.460000	7594049.070000	-1.008000
245442.460000	7594044.070000	-1.026000
245442.460000	7594039.070000	-0.944000
245442.460000	7594034.070000	-0.911000
245442.460000	7594029.070000	-0.843000
245442.460000	7594024.070000	-0.814190
245442.460000	7594019.070000	-0.838000
245442.460000	7594014.070000	-0.893000
245442.460000	7594009.070000	-0.843000
245442.460000	7594004.070000	-0.836000
245442.460000	7593999.070000	-0.825840
245442.460000	7593994.070000	-0.805000
245442.460000	7593989.070000	-0.787000
245442.460000	7593984.070000	-0.735000
245442.460000	7593979.070000	-0.727000
245442.460000	7593974.070000	-0.644000
245442.460000	7593969.070000	-0.812000
245442.460000	7593964.070000	-0.661000
245442.460000	7593959.070000	-0.629000
245442.460000	7593954.070000	-0.587000
245442.460000	7593949.070000	-0.682000
245442.460000	7593944.070000	-0.701000
245442.460000	7593939.070000	-0.700000
245442.460000	7593934.070000	-0.669000
245442.460000	7593929.070000	-0.710000
245442.460000	7593924.070000	-0.666000
245442.460000	7593919.070000	-0.728180
245442.460000	7593914.070000	-0.778900
245442.460000	7593909.070000	-0.732440
245442.460000	7593904.070000	-0.744000
245442.460000	7593899.070000	-0.689000
245442.460000	7593894.070000	-0.727000
245442.460000	7593889.070000	-0.788000
245442.460000	7593884.070000	-0.793000
245442.460000	7593879.070000	-0.864000
245442.460000	7593874.070000	-0.809000
245442.460000	7593869.070000	-0.881970
245442.460000	7593864.070000	-0.858000
245442.460000	7593859.070000	-0.849000
245442.460000	7593854.070000	-0.805000
245442.460000	7593849.070000	-0.777000
245442.460000	7593844.070000	-0.889000
245442.460000	7593839.070000	-0.851000
245442.460000	7593834.070000	-0.926010
245442.460000	7593829.070000	-0.915000
245442.460000	7593824.070000	-0.851000
245442.460000	7593819.070000	-0.921020
245442.460000	7593814.070000	-0.947000
245442.460000	7593809.070000	-0.943000
245442.460000	7593804.070000	-0.875000
245442.460000	7593799.070000	-0.819000
245442.460000	7593794.070000	-0.833000
245442.460000	7593789.070000	-0.816000
245442.460000	7593784.070000	-0.783000
245442.460000	7593779.070000	-0.960000
245442.460000	7593774.070000	-0.942000
245442.460000	7593769.070000	-1.001000
245442.460000	7593764.070000	-0.936000
245442.460000	7593759.070000	-0.920000
245442.460000	7593754.070000	-1.012000
245442.460000	7593749.070000	-1.071000
245442.460000	7593744.070000	-1.054930
245442.460000	7593739.070000	-0.994000
245442.460000	7593734.070000	-1.083000
245442.460000	7593729.070000	-1.037000
245442.460000	7593724.070000	-0.967000
245442.460000	7593719.070000	-1.033000
245442.460000	7593714.070000	-0.888190
245442.460000	7593709.070000	-0.922000
245442.460000	7593704.070000	-0.939000
245442.460000	7593699.070000	-0.957000
245442.460000	7593694.070000	-0.888000
245442.460000	7593689.070000	-0.794000
245442.460000	7593684.070000	-0.756000
245442.460000	7593679.070000	-0.691830
245442.460000	7593674.070000	-0.594000
245442.460000	7593669.070000	-0.629000
245442.460000	7593664.070000	-0.645000
245442.460000	7593659.070000	-0.811000
245442.460000	7593654.070000	-0.849000
245442.460000	7593649.070000	-0.809000
245442.460000	7593644.070000	-0.725000
245442.460000	7593639.070000	-0.737000
245442.460000	7593634.070000	-0.722000
245442.460000	7593629.070000	-0.685000
245442.460000	7593624.070000	-0.628000
245442.460000	7593619.070000	-0.579000
245442.460000	7593614.070000	-0.638630
245442.460000	7593609.070000	-0.642320
245442.460000	7593604.070000	-0.507000
245442.460000	7593599.070000	-0.520500
245442.460000	7593594.070000	-0.488000
245442.460000	7593589.070000	-0.417000
245442.460000	7593584.070000	-0.474120
245442.460000	7593579.070000	-0.653000
245442.460000	7593574.070000	-0.853000
245442.460000	7593569.070000	-0.806000
245442.460000	7593564.070000	-0.707000
245442.460000	7593559.070000	-0.703000
245442.460000	7593554.070000	-0.622820
245442.460000	7593549.070000	-0.692000
245442.460000	7593544.070000	-0.687400
245442.460000	7593539.070000	-0.798020
245442.460000	7593534.070000	-1.048000
245442.460000	7593529.070000	-1.224000
245442.460000	7593524.070000	-1.383780
245442.460000	7593519.070000	-1.358000
245442.460000	7593514.070000	-1.335000
245442.460000	7593509.070000	-1.208000
245442.460000	7593504.070000	-1.256000
245442.460000	7593499.070000	-1.402000
245442.460000	7593494.070000	-1.366000
245442.460000	7593489.070000	-1.279000
245442.460000	7593484.070000	-1.614000
245442.460000	7593479.070000	-1.661000
245442.460000	7593474.070000	-1.753030
245442.460000	7593469.070000	-2.048000
245442.460000	7593464.070000	-1.970000
245442.460000	7593459.070000	-2.018000
245442.460000	7593454.070000	-2.140000
245442.460000	7593449.070000	-2.264000
245442.460000	7593444.070000	-2.376000
245442.460000	7593439.070000	-2.368000
245442.460000	7593434.070000	-2.402000
245442.460000	7593429.070000	-2.777000
245442.460000	7593424.070000	-2.595000
245442.460000	7593419.070000	-2.513000
245442.460000	7593414.070000	-2.884000
245442.460000	7593409.070000	-2.710000
